ply
format ascii 1.0
element vertex 1277
property float x
property float y
property float z
property uchar red
property uchar green
property uchar blue
end_header
0.427577 0.362459 0.086667 98 97 51
0.430362 0.362459 0.096190 106 114 67
0.433148 0.362459 0.114286 71 68 44
0.435933 0.362459 0.138095 97 104 68
0.438719 0.362459 0.155238 164 174 116
0.441504 0.362459 0.160952 127 131 86
0.444290 0.362459 0.159048 132 136 78
0.447075 0.362459 0.157143 131 120 75
0.449861 0.362459 0.159048 111 118 48
0.452646 0.362459 0.161905 176 186 116
0.455432 0.362459 0.159048 152 166 91
0.458217 0.362459 0.152381 167 159 130
0.461003 0.362459 0.139048 150 145 104
0.463788 0.362459 0.122857 96 93 56
0.466574 0.362459 0.103810 101 88 61
0.469359 0.362459 0.084762 82 74 62
0.472145 0.362459 0.067619 107 89 78
0.474930 0.362459 0.054286 124 115 89
0.477716 0.362459 0.050476 94 82 63
0.480501 0.362459 0.053333 126 120 112
0.483287 0.362459 0.055238 152 150 148
0.486072 0.362459 0.051429 65 56 53
0.488858 0.362459 0.040000 16 14 9
0.491643 0.362459 0.025714 27 27 16
0.494429 0.362459 0.015238 30 30 18
0.497214 0.362459 0.008571 26 27 14
0.500000 0.362459 0.007619 12 16 5
-0.500000 0.359670 0.000000 2 3 2
-0.497214 0.359670 0.000000 18 18 15
-0.494429 0.359670 0.000000 25 25 17
-0.491643 0.359670 0.000000 34 36 28
-0.488858 0.359670 0.002857 56 58 53
-0.486072 0.359670 0.015238 8 8 5
-0.483287 0.359670 0.032381 9 10 7
-0.480501 0.359670 0.050476 68 78 52
-0.477716 0.359670 0.062857 92 104 64
-0.474930 0.359670 0.067619 105 119 84
-0.472145 0.359670 0.070476 74 80 60
-0.469359 0.359670 0.073333 111 116 97
-0.466574 0.359670 0.073333 91 100 71
-0.463788 0.359670 0.072381 26 30 14
-0.461003 0.359670 0.072381 31 32 24
-0.458217 0.359670 0.074286 31 35 21
-0.455432 0.359670 0.076190 95 99 73
-0.452646 0.359670 0.077143 123 127 93
-0.449861 0.359670 0.076190 82 82 61
-0.447075 0.359670 0.076190 127 131 96
-0.444290 0.359670 0.078095 132 128 97
-0.441504 0.359670 0.079048 127 129 94
-0.438719 0.359670 0.079048 44 38 18
-0.435933 0.359670 0.076190 51 48 26
-0.433148 0.359670 0.073333 37 39 30
-0.430362 0.359670 0.069524 78 78 63
-0.427577 0.359670 0.065714 105 108 76
-0.424791 0.359670 0.061905 103 108 83
-0.422006 0.359670 0.060000 47 50 26
-0.419220 0.359670 0.059048 98 95 78
-0.416435 0.359670 0.059048 127 131 103
-0.413649 0.359670 0.059048 100 93 81
-0.410864 0.359670 0.061905 59 52 36
-0.408078 0.359670 0.070476 94 82 67
-0.405292 0.359670 0.081905 131 121 104
-0.402507 0.359670 0.093333 90 92 61
-0.399721 0.359670 0.100952 48 39 28
-0.396936 0.359670 0.107619 101 102 67
-0.394150 0.359670 0.115238 73 84 45
-0.391365 0.359670 0.120952 74 84 46
-0.388579 0.359670 0.120000 97 108 63
-0.385794 0.359670 0.112381 108 120 78
-0.383008 0.359670 0.099048 87 89 66
-0.380223 0.359670 0.084762 82 88 53
-0.377437 0.359670 0.070476 99 113 63
-0.374652 0.359670 0.060000 47 53 30
-0.371866 0.359670 0.055238 32 33 24
-0.369081 0.359670 0.057143 42 40 24
-0.366295 0.359670 0.063810 115 122 70
-0.363510 0.359670 0.067619 89 91 63
-0.360724 0.359670 0.066667 56 55 35
-0.357939 0.359670 0.062857 89 92 61
-0.355153 0.359670 0.058095 94 97 66
-0.352368 0.359670 0.056190 85 88 63
-0.349582 0.359670 0.053333 52 54 31
-0.346797 0.359670 0.050476 63 62 49
-0.344011 0.359670 0.044762 67 67 61
-0.341226 0.359670 0.036190 18 14 11
-0.338440 0.359670 0.028571 46 35 30
-0.335655 0.359670 0.023810 76 67 49
-0.332869 0.359670 0.023810 97 80 67
-0.330084 0.359670 0.029524 107 99 78
-0.327298 0.359670 0.037143 54 51 34
-0.324513 0.359670 0.040952 85 72 49
-0.321727 0.359670 0.043810 143 117 92
-0.318942 0.359670 0.043810 85 89 52
-0.316156 0.359670 0.040000 93 80 51
-0.313370 0.359670 0.036190 132 111 85
-0.310585 0.359670 0.034286 74 64 43
-0.307799 0.359670 0.033333 116 106 78
-0.305014 0.359670 0.036190 84 87 68
-0.302228 0.359670 0.041905 39 35 27
-0.299443 0.359670 0.049524 123 119 88
-0.296657 0.359670 0.058095 89 80 63
-0.293872 0.359670 0.063810 112 116 79
-0.291086 0.359670 0.064762 107 103 65
-0.288301 0.359670 0.062857 106 91 70
-0.285515 0.359670 0.056190 118 118 103
-0.282730 0.359670 0.044762 96 99 90
-0.279944 0.359670 0.030476 94 69 58
-0.277159 0.359670 0.015238 69 61 44
-0.274373 0.359670 0.002857 41 43 31
-0.271588 0.359670 0.000000 17 17 15
-0.268802 0.359670 0.000952 42 40 37
-0.266017 0.359670 0.015238 33 31 28
-0.263231 0.359670 0.035238 70 62 49
-0.260446 0.359670 0.052381 131 119 103
-0.257660 0.359670 0.056190 175 166 162
-0.254875 0.359670 0.045714 130 113 87
-0.252089 0.359670 0.025714 123 108 90
-0.249304 0.359670 0.008571 124 105 96
-0.246518 0.359670 0.000000 120 100 96
-0.243733 0.359670 0.000000 103 89 77
-0.240947 0.359670 0.000000 94 80 68
-0.238162 0.359670 0.000000 91 77 66
-0.235376 0.359670 0.000000 73 65 60
-0.232591 0.359670 0.000000 50 44 39
-0.229805 0.359670 0.005714 108 96 84
-0.227019 0.359670 0.015238 98 81 73
-0.224234 0.359670 0.027619 87 80 71
-0.221448 0.359670 0.040000 80 62 55
-0.218663 0.359670 0.048571 150 128 101
-0.215877 0.359670 0.048571 133 118 107
-0.213092 0.359670 0.040952 134 132 118
-0.210306 0.359670 0.025714 94 83 69
-0.207521 0.359670 0.010476 71 62 55
-0.204735 0.359670 0.000952 72 62 58
-0.201950 0.359670 0.000000 65 56 51
-0.199164 0.359670 0.000000 81 70 62
-0.196379 0.359670 0.000000 70 63 51
-0.193593 0.359670 0.001905 48 51 34
-0.190808 0.359670 0.015238 71 63 53
-0.188022 0.359670 0.026667 100 91 87
-0.185237 0.359670 0.030476 133 119 114
-0.182451 0.359670 0.022857 108 85 76
-0.179666 0.359670 0.009524 107 82 68
-0.176880 0.359670 0.000000 85 81 56
-0.174095 0.359670 0.000000 99 75 63
-0.171309 0.359670 0.000000 123 101 91
-0.168524 0.359670 0.000000 64 47 44
-0.165738 0.359670 0.000000 50 40 39
-0.162953 0.359670 0.000000 97 82 81
-0.160167 0.359670 0.004762 75 61 60
-0.157382 0.359670 0.016190 144 130 124
-0.154596 0.359670 0.025714 170 161 150
-0.151811 0.359670 0.028571 129 119 109
-0.149025 0.359670 0.024762 100 86 80
-0.146240 0.359670 0.019048 128 105 91
-0.143454 0.359670 0.015238 102 79 64
-0.140669 0.359670 0.012381 71 58 45
-0.137883 0.359670 0.009524 109 97 74
-0.135098 0.359670 0.004762 119 109 92
-0.132312 0.359670 0.000000 74 61 56
-0.129526 0.359670 0.000952 97 77 71
-0.126741 0.359670 0.012381 92 67 59
-0.123955 0.359670 0.031429 135 102 96
-0.121170 0.359670 0.053333 151 140 125
-0.118384 0.359670 0.070476 125 117 81
-0.115599 0.359670 0.082857 133 122 95
-0.112813 0.359670 0.088571 131 113 93
-0.110028 0.359670 0.091429 146 136 130
-0.107242 0.359670 0.086667 151 123 110
-0.104457 0.359670 0.074286 121 88 73
-0.101671 0.359670 0.055238 93 64 53
-0.098886 0.359670 0.033333 89 63 57
-0.096100 0.359670 0.013333 91 73 67
-0.093315 0.359670 0.000952 137 113 100
-0.090529 0.359670 0.000000 87 74 63
-0.087744 0.359670 0.000000 35 32 30
-0.084958 0.359670 0.000000 69 63 62
-0.082173 0.359670 0.011429 80 67 66
-0.079387 0.359670 0.028571 141 121 100
-0.076602 0.359670 0.041905 178 150 126
-0.073816 0.359670 0.043810 151 119 104
-0.071031 0.359670 0.037143 82 54 43
-0.068245 0.359670 0.025714 131 109 101
-0.065460 0.359670 0.014286 135 114 108
-0.062674 0.359670 0.005714 166 150 148
-0.059889 0.359670 0.000000 95 82 82
-0.057103 0.359670 0.000000 120 111 111
-0.054318 0.359670 0.000000 59 54 54
-0.051532 0.359670 0.000000 51 42 41
-0.048747 0.359670 0.002857 79 65 60
-0.045961 0.359670 0.016190 75 64 63
-0.043175 0.359670 0.034286 84 68 66
-0.040390 0.359670 0.053333 112 93 84
-0.037604 0.359670 0.065714 149 122 109
-0.034819 0.359670 0.067619 130 100 89
-0.032033 0.359670 0.058095 150 112 99
-0.029248 0.359670 0.044762 143 114 94
-0.026462 0.359670 0.030476 109 92 70
-0.023677 0.359670 0.020000 144 113 102
-0.020891 0.359670 0.011429 142 125 103
-0.018106 0.359670 0.002857 131 115 93
-0.015320 0.359670 0.000000 80 71 57
-0.012535 0.359670 0.000000 49 41 41
-0.009749 0.359670 0.000000 65 50 47
-0.006964 0.359670 0.014286 112 84 79
-0.004178 0.359670 0.038095 104 82 72
-0.001393 0.359670 0.060952 156 130 116
0.001393 0.359670 0.067619 179 155 147
0.004178 0.359670 0.058095 145 117 97
0.006964 0.359670 0.039048 122 89 72
0.009749 0.359670 0.020000 134 109 86
0.012535 0.359670 0.009524 125 112 77
0.015320 0.359670 0.003810 92 72 63
0.018106 0.359670 0.000952 116 103 90
0.020891 0.359670 0.000000 80 68 57
0.023677 0.359670 0.000000 109 86 77
0.026462 0.359670 0.000000 75 70 58
0.029248 0.359670 0.000952 76 64 58
0.032033 0.359670 0.008571 115 95 88
0.034819 0.359670 0.019048 67 59 47
0.037604 0.359670 0.033333 50 39 32
0.040390 0.359670 0.043810 71 59 50
0.043175 0.359670 0.049524 124 118 92
0.045961 0.359670 0.051429 94 95 72
0.048747 0.359670 0.051429 68 65 55
0.051532 0.359670 0.047619 55 56 42
0.054318 0.359670 0.040000 75 75 54
0.057103 0.359670 0.028571 62 57 44
0.059889 0.359670 0.018095 49 44 36
0.062674 0.359670 0.009524 35 32 28
0.065460 0.359670 0.006667 72 63 54
0.068245 0.359670 0.006667 59 47 44
0.071031 0.359670 0.011429 50 41 40
0.073816 0.359670 0.024762 58 46 44
0.076602 0.359670 0.045714 28 25 23
0.079387 0.359670 0.067619 86 78 63
0.082173 0.359670 0.082857 98 83 70
0.084958 0.359670 0.088571 38 24 19
0.087744 0.359670 0.084762 113 111 76
0.090529 0.359670 0.077143 133 129 94
0.093315 0.359670 0.066667 76 62 52
0.096100 0.359670 0.054286 36 32 25
0.098886 0.359670 0.042857 77 72 55
0.101671 0.359670 0.038095 68 60 50
0.104457 0.359670 0.042857 35 35 26
0.107242 0.359670 0.055238 105 88 72
0.110028 0.359670 0.065714 129 115 94
0.112813 0.359670 0.070476 139 134 101
0.115599 0.359670 0.069524 142 147 103
0.118384 0.359670 0.065714 134 135 105
0.121170 0.359670 0.060952 95 92 78
0.123955 0.359670 0.057143 112 117 81
0.126741 0.359670 0.051429 93 94 62
0.129526 0.359670 0.044762 98 102 72
0.132312 0.359670 0.037143 90 92 72
0.135098 0.359670 0.028571 61 56 49
0.137883 0.359670 0.020000 85 73 67
0.140669 0.359670 0.014286 33 31 23
0.143454 0.359670 0.009524 53 50 39
0.146240 0.359670 0.008571 35 33 26
0.149025 0.359670 0.016190 23 23 19
0.151811 0.359670 0.028571 59 54 44
0.154596 0.359670 0.041905 105 97 76
0.157382 0.359670 0.052381 143 122 102
0.160167 0.359670 0.055238 144 119 112
0.162953 0.359670 0.053333 135 108 106
0.165738 0.359670 0.050476 115 87 69
0.168524 0.359670 0.048571 93 84 55
0.171309 0.359670 0.049524 164 136 119
0.174095 0.359670 0.051429 100 81 64
0.176880 0.359670 0.051429 102 103 75
0.179666 0.359670 0.051429 100 108 81
0.182451 0.359670 0.048571 53 47 44
0.185237 0.359670 0.046667 75 63 55
0.188022 0.359670 0.047619 92 70 64
0.190808 0.359670 0.054286 61 48 46
0.193593 0.359670 0.066667 91 87 87
0.196379 0.359670 0.078095 166 164 151
0.199164 0.359670 0.081905 184 181 174
0.201950 0.359670 0.078095 121 109 102
0.204735 0.359670 0.072381 101 89 75
0.207521 0.359670 0.069524 111 102 82
0.210306 0.359670 0.065714 166 160 145
0.213092 0.359670 0.059048 144 142 114
0.215877 0.359670 0.047619 109 97 67
0.218663 0.359670 0.039048 117 84 75
0.221448 0.359670 0.036190 54 32 30
0.224234 0.359670 0.041905 52 50 41
0.227019 0.359670 0.056190 21 18 15
0.229805 0.359670 0.073333 58 56 49
0.232591 0.359670 0.091429 104 107 83
0.235376 0.359670 0.102857 160 159 135
0.238162 0.359670 0.106667 124 124 96
0.240947 0.359670 0.100000 93 96 69
0.243733 0.359670 0.086667 94 93 58
0.246518 0.359670 0.071429 57 52 46
0.249304 0.359670 0.060952 47 53 40
0.252089 0.359670 0.053333 45 49 30
0.254875 0.359670 0.052381 57 65 37
0.257660 0.359670 0.054286 43 43 31
0.260446 0.359670 0.057143 65 60 46
0.263231 0.359670 0.058095 94 77 67
0.266017 0.359670 0.058095 91 92 60
0.268802 0.359670 0.063810 105 116 68
0.271588 0.359670 0.067619 119 111 77
0.274373 0.359670 0.069524 162 152 126
0.277159 0.359670 0.066667 96 79 58
0.279944 0.359670 0.060000 78 61 41
0.282730 0.359670 0.053333 87 71 50
0.285515 0.359670 0.049524 79 75 49
0.288301 0.359670 0.044762 53 52 37
0.291086 0.359670 0.038095 112 102 80
0.293872 0.359670 0.034286 96 85 70
0.296657 0.359670 0.037143 25 20 19
0.299443 0.359670 0.046667 104 101 77
0.302228 0.359670 0.060000 129 117 87
0.305014 0.359670 0.075238 125 109 100
0.307799 0.359670 0.085714 105 89 72
0.310585 0.359670 0.089524 58 45 33
0.313370 0.359670 0.085714 108 106 81
0.316156 0.359670 0.079048 137 141 95
0.318942 0.359670 0.070476 91 94 65
0.321727 0.359670 0.064762 61 53 46
0.324513 0.359670 0.065714 85 72 57
0.327298 0.359670 0.075238 81 75 58
0.330084 0.359670 0.087619 41 37 29
0.332869 0.359670 0.096190 118 98 83
0.335655 0.359670 0.098095 136 124 93
0.338440 0.359670 0.096190 122 121 81
0.341226 0.359670 0.094286 157 150 131
0.344011 0.359670 0.092381 114 115 84
0.346797 0.359670 0.087619 69 82 41
0.349582 0.359670 0.080000 58 56 51
0.352368 0.359670 0.071429 121 124 106
0.355153 0.359670 0.063810 138 143 96
0.357939 0.359670 0.061905 86 78 54
0.360724 0.359670 0.064762 86 86 54
0.363510 0.359670 0.072381 133 132 93
0.366295 0.359670 0.081905 113 102 79
0.369081 0.359670 0.091429 144 128 110
0.371866 0.359670 0.096190 132 112 98
0.374652 0.359670 0.095238 108 92 69
0.377437 0.359670 0.092381 150 144 109
0.380223 0.359670 0.090476 134 113 89
0.383008 0.359670 0.096190 98 85 47
0.385794 0.359670 0.109524 109 94 69
0.388579 0.359670 0.121905 148 144 135
0.391365 0.359670 0.127619 204 182 162
0.394150 0.359670 0.123810 99 79 60
0.396936 0.359670 0.114286 103 88 73
0.399721 0.359670 0.104762 164 142 116
0.402507 0.359670 0.100000 132 108 87
0.405292 0.359670 0.100952 103 88 79
0.408078 0.359670 0.100000 128 117 114
0.410864 0.359670 0.097143 93 88 56
0.413649 0.359670 0.090476 165 183 126
0.416435 0.359670 0.081905 136 126 95
0.419220 0.359670 0.075238 98 86 57
0.422006 0.359670 0.074286 77 64 46
0.424791 0.359670 0.077143 83 65 41
0.427577 0.359670 0.085714 105 99 72
0.430362 0.359670 0.100952 118 129 79
0.433148 0.359670 0.124762 115 99 64
0.435933 0.359670 0.151429 117 104 75
0.438719 0.359670 0.170476 60 56 28
0.441504 0.359670 0.177143 127 137 66
0.444290 0.359670 0.175238 149 150 96
0.447075 0.359670 0.173333 115 110 70
0.449861 0.359670 0.176190 138 147 66
0.452646 0.359670 0.180952 116 139 49
0.455432 0.359670 0.181905 105 106 65
0.458217 0.359670 0.175238 83 74 39
0.461003 0.359670 0.160000 117 114 74
0.463788 0.359670 0.137143 134 138 73
0.466574 0.359670 0.111429 123 132 74
0.469359 0.359670 0.089524 134 138 115
0.472145 0.359670 0.071429 124 111 103
0.474930 0.359670 0.060000 59 45 32
0.477716 0.359670 0.055238 97 87 83
0.480501 0.359670 0.057143 126 120 122
0.483287 0.359670 0.056190 64 53 52
0.486072 0.359670 0.050476 40 37 25
0.488858 0.359670 0.040000 50 47 29
0.491643 0.359670 0.028571 63 63 37
0.494429 0.359670 0.021905 50 52 28
0.497214 0.359670 0.017143 51 52 29
0.500000 0.359670 0.017143 22 25 11
-0.500000 0.356882 0.000000 6 6 5
-0.497214 0.356882 0.000000 4 3 2
-0.494429 0.356882 0.000000 8 7 5
-0.491643 0.356882 0.000000 26 26 25
-0.488858 0.356882 0.003810 32 35 34
-0.486072 0.356882 0.017143 8 10 6
-0.483287 0.356882 0.035238 5 5 2
-0.480501 0.356882 0.052381 18 22 13
-0.477716 0.356882 0.064762 71 82 48
-0.474930 0.356882 0.069524 85 89 63
-0.472145 0.356882 0.071429 81 87 61
-0.469359 0.356882 0.072381 87 99 61
-0.466574 0.356882 0.072381 85 90 61
-0.463788 0.356882 0.072381 49 48 32
-0.461003 0.356882 0.072381 24 21 13
-0.458217 0.356882 0.073333 37 49 32
-0.455432 0.356882 0.076190 23 31 17
-0.452646 0.356882 0.078095 49 51 39
-0.449861 0.356882 0.078095 71 71 49
-0.447075 0.356882 0.079048 97 109 73
-0.444290 0.356882 0.081905 97 104 71
-0.441504 0.356882 0.084762 69 83 39
-0.438719 0.356882 0.085714 91 84 72
-0.435933 0.356882 0.081905 106 103 93
-0.433148 0.356882 0.078095 37 36 23
-0.430362 0.356882 0.073333 27 24 21
-0.427577 0.356882 0.067619 79 80 61
-0.424791 0.356882 0.062857 93 92 73
-0.422006 0.356882 0.059048 90 90 62
-0.419220 0.356882 0.057143 64 64 60
-0.416435 0.356882 0.056190 101 93 93
-0.413649 0.356882 0.056190 78 77 66
-0.410864 0.356882 0.059048 53 45 33
-0.408078 0.356882 0.067619 40 33 27
-0.405292 0.356882 0.078095 103 102 99
-0.402507 0.356882 0.090476 36 35 32
-0.399721 0.356882 0.100000 96 102 67
-0.396936 0.356882 0.107619 93 101 60
-0.394150 0.356882 0.113333 60 71 38
-0.391365 0.356882 0.115238 124 149 92
-0.388579 0.356882 0.112381 89 92 70
-0.385794 0.356882 0.103810 97 99 66
-0.383008 0.356882 0.093333 78 76 50
-0.380223 0.356882 0.081905 93 93 52
-0.377437 0.356882 0.071429 51 55 28
-0.374652 0.356882 0.062857 37 46 19
-0.371866 0.356882 0.058095 37 42 26
-0.369081 0.356882 0.059048 33 33 24
-0.366295 0.356882 0.064762 90 95 56
-0.363510 0.356882 0.067619 108 122 79
-0.360724 0.356882 0.066667 84 85 58
-0.357939 0.356882 0.062857 110 111 81
-0.355153 0.356882 0.059048 80 80 53
-0.352368 0.356882 0.056190 109 115 76
-0.349582 0.356882 0.052381 52 53 28
-0.346797 0.356882 0.047619 93 98 66
-0.344011 0.356882 0.041905 92 90 73
-0.341226 0.356882 0.033333 37 27 22
-0.338440 0.356882 0.025714 53 49 34
-0.335655 0.356882 0.021905 104 93 76
-0.332869 0.356882 0.021905 72 57 51
-0.330084 0.356882 0.027619 99 96 69
-0.327298 0.356882 0.035238 67 60 46
-0.324513 0.356882 0.039048 72 52 45
-0.321727 0.356882 0.042857 100 82 68
-0.318942 0.356882 0.040952 84 69 47
-0.316156 0.356882 0.037143 107 85 65
-0.313370 0.356882 0.032381 98 76 55
-0.310585 0.356882 0.029524 86 77 53
-0.307799 0.356882 0.028571 102 97 63
-0.305014 0.356882 0.031429 85 85 65
-0.302228 0.356882 0.037143 25 27 15
-0.299443 0.356882 0.044762 54 46 36
-0.296657 0.356882 0.051429 90 84 63
-0.293872 0.356882 0.056190 136 135 103
-0.291086 0.356882 0.058095 99 92 68
-0.288301 0.356882 0.057143 75 79 55
-0.285515 0.356882 0.052381 53 48 31
-0.282730 0.356882 0.041905 145 137 123
-0.279944 0.356882 0.028571 92 86 79
-0.277159 0.356882 0.013333 44 42 28
-0.274373 0.356882 0.001905 37 32 24
-0.271588 0.356882 0.000000 73 58 52
-0.268802 0.356882 0.000000 73 68 63
-0.266017 0.356882 0.013333 29 27 27
-0.263231 0.356882 0.030476 71 57 55
-0.260446 0.356882 0.045714 140 123 95
-0.257660 0.356882 0.051429 119 104 86
-0.254875 0.356882 0.044762 70 60 50
-0.252089 0.356882 0.029524 116 107 92
-0.249304 0.356882 0.014286 120 117 102
-0.246518 0.356882 0.001905 99 91 71
-0.243733 0.356882 0.000000 120 103 88
-0.240947 0.356882 0.000000 108 78 69
-0.238162 0.356882 0.000000 106 84 76
-0.235376 0.356882 0.000000 38 32 29
-0.232591 0.356882 0.001905 46 40 40
-0.229805 0.356882 0.011429 81 66 63
-0.227019 0.356882 0.020952 155 139 127
-0.224234 0.356882 0.032381 73 59 52
-0.221448 0.356882 0.041905 103 84 77
-0.218663 0.356882 0.049524 145 121 109
-0.215877 0.356882 0.049524 107 85 66
-0.213092 0.356882 0.041905 109 89 69
-0.210306 0.356882 0.030476 100 82 68
-0.207521 0.356882 0.016190 102 100 85
-0.204735 0.356882 0.006667 75 64 60
-0.201950 0.356882 0.000000 61 51 50
-0.199164 0.356882 0.000000 67 58 57
-0.196379 0.356882 0.000000 57 51 45
-0.193593 0.356882 0.004762 32 34 25
-0.190808 0.356882 0.019048 50 46 36
-0.188022 0.356882 0.030476 89 73 73
-0.185237 0.356882 0.031429 165 152 151
-0.182451 0.356882 0.022857 152 117 105
-0.179666 0.356882 0.008571 122 95 76
-0.176880 0.356882 0.000000 130 113 106
-0.174095 0.356882 0.000000 136 119 108
-0.171309 0.356882 0.000000 147 136 120
-0.168524 0.356882 0.000000 40 37 38
-0.165738 0.356882 0.000000 32 26 26
-0.162953 0.356882 0.000000 78 63 59
-0.160167 0.356882 0.000000 90 78 75
-0.157382 0.356882 0.009524 93 79 78
-0.154596 0.356882 0.018095 126 117 117
-0.151811 0.356882 0.020952 136 132 125
-0.149025 0.356882 0.018095 155 149 146
-0.146240 0.356882 0.012381 78 70 57
-0.143454 0.356882 0.007619 122 101 86
-0.140669 0.356882 0.004762 97 74 66
-0.137883 0.356882 0.002857 105 79 65
-0.135098 0.356882 0.000000 118 94 89
-0.132312 0.356882 0.000000 68 59 57
-0.129526 0.356882 0.000000 62 47 45
-0.126741 0.356882 0.009524 112 88 83
-0.123955 0.356882 0.029524 119 89 80
-0.121170 0.356882 0.055238 126 105 97
-0.118384 0.356882 0.077143 136 123 111
-0.115599 0.356882 0.093333 176 163 157
-0.112813 0.356882 0.100000 155 146 142
-0.110028 0.356882 0.100952 151 130 124
-0.107242 0.356882 0.094286 136 113 94
-0.104457 0.356882 0.080000 102 75 53
-0.101671 0.356882 0.061905 156 144 132
-0.098886 0.356882 0.040000 179 173 173
-0.096100 0.356882 0.019048 114 101 92
-0.093315 0.356882 0.002857 125 111 108
-0.090529 0.356882 0.000000 66 48 44
-0.087744 0.356882 0.000000 67 54 52
-0.084958 0.356882 0.000000 81 70 68
-0.082173 0.356882 0.010476 81 72 61
-0.079387 0.356882 0.029524 85 84 55
-0.076602 0.356882 0.047619 143 119 100
-0.073816 0.356882 0.055238 151 125 98
-0.071031 0.356882 0.051429 136 113 99
-0.068245 0.356882 0.038095 107 76 63
-0.065460 0.356882 0.021905 150 134 128
-0.062674 0.356882 0.009524 108 91 82
-0.059889 0.356882 0.000000 58 49 39
-0.057103 0.356882 0.000000 73 66 64
-0.054318 0.356882 0.000000 40 35 35
-0.051532 0.356882 0.000000 12 10 9
-0.048747 0.356882 0.009524 63 55 54
-0.045961 0.356882 0.022857 112 95 90
-0.043175 0.356882 0.038095 164 140 128
-0.040390 0.356882 0.052381 136 112 100
-0.037604 0.356882 0.060952 176 150 138
-0.034819 0.356882 0.060952 157 122 114
-0.032033 0.356882 0.051429 142 111 95
-0.029248 0.356882 0.038095 143 123 99
-0.026462 0.356882 0.025714 114 86 69
-0.023677 0.356882 0.016190 156 130 111
-0.020891 0.356882 0.009524 130 116 97
-0.018106 0.356882 0.000952 118 109 67
-0.015320 0.356882 0.000000 99 83 60
-0.012535 0.356882 0.000000 61 48 47
-0.009749 0.356882 0.000000 73 56 55
-0.006964 0.356882 0.009524 92 73 69
-0.004178 0.356882 0.031429 85 70 57
-0.001393 0.356882 0.053333 118 92 80
0.001393 0.356882 0.062857 112 82 72
0.004178 0.356882 0.057143 145 126 111
0.006964 0.356882 0.043810 126 104 81
0.009749 0.356882 0.030476 127 103 73
0.012535 0.356882 0.021905 129 117 85
0.015320 0.356882 0.015238 119 94 85
0.018106 0.356882 0.009524 146 125 107
0.020891 0.356882 0.004762 80 61 52
0.023677 0.356882 0.001905 89 82 65
0.026462 0.356882 0.003810 101 89 74
0.029248 0.356882 0.008571 101 85 76
0.032033 0.356882 0.015238 90 79 76
0.034819 0.356882 0.024762 21 19 17
0.037604 0.356882 0.035238 22 17 16
0.040390 0.356882 0.043810 109 107 85
0.043175 0.356882 0.046667 140 147 115
0.045961 0.356882 0.047619 113 112 84
0.048747 0.356882 0.045714 97 93 70
0.051532 0.356882 0.042857 86 83 64
0.054318 0.356882 0.037143 38 40 26
0.057103 0.356882 0.028571 58 59 42
0.059889 0.356882 0.020952 37 39 31
0.062674 0.356882 0.014286 54 51 44
0.065460 0.356882 0.008571 86 82 70
0.068245 0.356882 0.007619 7 8 8
0.071031 0.356882 0.012381 33 31 30
0.073816 0.356882 0.027619 53 54 43
0.076602 0.356882 0.051429 84 65 55
0.079387 0.356882 0.078095 141 127 118
0.082173 0.356882 0.096190 163 164 149
0.084958 0.356882 0.100952 51 49 30
0.087744 0.356882 0.094286 67 63 43
0.090529 0.356882 0.082857 130 118 87
0.093315 0.356882 0.070476 108 101 79
0.096100 0.356882 0.058095 43 51 29
0.098886 0.356882 0.045714 102 99 72
0.101671 0.356882 0.038095 55 48 39
0.104457 0.356882 0.039048 56 56 42
0.107242 0.356882 0.046667 63 49 41
0.110028 0.356882 0.054286 54 54 37
0.112813 0.356882 0.059048 89 93 70
0.115599 0.356882 0.058095 105 99 76
0.118384 0.356882 0.054286 95 101 60
0.121170 0.356882 0.050476 120 115 94
0.123955 0.356882 0.047619 116 117 86
0.126741 0.356882 0.042857 130 126 109
0.129526 0.356882 0.037143 96 98 76
0.132312 0.356882 0.030476 96 99 74
0.135098 0.356882 0.022857 40 39 31
0.137883 0.356882 0.017143 80 79 63
0.140669 0.356882 0.013333 66 64 51
0.143454 0.356882 0.008571 74 68 54
0.146240 0.356882 0.008571 42 40 33
0.149025 0.356882 0.017143 51 42 34
0.151811 0.356882 0.031429 45 36 31
0.154596 0.356882 0.049524 76 63 51
0.157382 0.356882 0.061905 151 135 120
0.160167 0.356882 0.064762 169 163 158
0.162953 0.356882 0.060000 158 146 135
0.165738 0.356882 0.052381 105 84 71
0.168524 0.356882 0.046667 160 144 133
0.171309 0.356882 0.046667 107 86 72
0.174095 0.356882 0.049524 78 67 53
0.176880 0.356882 0.052381 126 134 96
0.179666 0.356882 0.053333 128 137 100
0.182451 0.356882 0.051429 70 74 57
0.185237 0.356882 0.049524 30 24 22
0.188022 0.356882 0.049524 34 29 25
0.190808 0.356882 0.057143 129 123 117
0.193593 0.356882 0.069524 56 43 42
0.196379 0.356882 0.080000 82 91 57
0.199164 0.356882 0.083810 137 143 113
0.201950 0.356882 0.080952 81 80 66
0.204735 0.356882 0.075238 23 36 12
0.207521 0.356882 0.069524 48 40 30
0.210306 0.356882 0.064762 84 72 61
0.213092 0.356882 0.056190 78 87 56
0.215877 0.356882 0.045714 113 111 77
0.218663 0.356882 0.039048 86 72 58
0.221448 0.356882 0.037143 79 67 56
0.224234 0.356882 0.042857 62 59 42
0.227019 0.356882 0.057143 60 65 43
0.229805 0.356882 0.076190 64 51 44
0.232591 0.356882 0.092381 69 64 47
0.235376 0.356882 0.103810 74 80 47
0.238162 0.356882 0.106667 92 85 53
0.240947 0.356882 0.100952 35 36 19
0.243733 0.356882 0.087619 66 57 41
0.246518 0.356882 0.074286 36 31 21
0.249304 0.356882 0.062857 58 59 43
0.252089 0.356882 0.057143 74 75 54
0.254875 0.356882 0.057143 50 52 39
0.257660 0.356882 0.059048 35 31 23
0.260446 0.356882 0.060000 99 87 72
0.263231 0.356882 0.059048 143 118 101
0.266017 0.356882 0.057143 74 60 45
0.268802 0.356882 0.060000 126 113 79
0.271588 0.356882 0.062857 124 116 75
0.274373 0.356882 0.064762 119 119 74
0.277159 0.356882 0.064762 103 91 60
0.279944 0.356882 0.060952 102 96 75
0.282730 0.356882 0.057143 135 113 88
0.285515 0.356882 0.051429 136 138 87
0.288301 0.356882 0.044762 71 67 45
0.291086 0.356882 0.036190 95 85 69
0.293872 0.356882 0.029524 86 74 64
0.296657 0.356882 0.029524 64 56 51
0.299443 0.356882 0.038095 102 92 75
0.302228 0.356882 0.052381 104 91 77
0.305014 0.356882 0.070476 95 77 59
0.307799 0.356882 0.084762 124 115 101
0.310585 0.356882 0.091429 144 133 128
0.313370 0.356882 0.089524 136 126 104
0.316156 0.356882 0.081905 119 107 75
0.318942 0.356882 0.071429 52 52 31
0.321727 0.356882 0.063810 66 61 46
0.324513 0.356882 0.062857 114 91 75
0.327298 0.356882 0.070476 48 42 37
0.330084 0.356882 0.083810 89 81 66
0.332869 0.356882 0.096190 103 91 66
0.335655 0.356882 0.103810 151 128 107
0.338440 0.356882 0.110476 115 110 79
0.341226 0.356882 0.114286 163 167 151
0.344011 0.356882 0.116190 155 139 129
0.346797 0.356882 0.110476 50 45 28
0.349582 0.356882 0.100000 59 55 43
0.352368 0.356882 0.086667 58 46 43
0.355153 0.356882 0.075238 83 73 60
0.357939 0.356882 0.070476 75 58 52
0.360724 0.356882 0.071429 68 60 50
0.363510 0.356882 0.076190 92 86 73
0.366295 0.356882 0.083810 118 105 91
0.369081 0.356882 0.091429 112 94 79
0.371866 0.356882 0.093333 78 65 52
0.374652 0.356882 0.091429 117 98 79
0.377437 0.356882 0.086667 92 79 61
0.380223 0.356882 0.083810 121 108 71
0.383008 0.356882 0.086667 109 100 66
0.385794 0.356882 0.096190 86 69 50
0.388579 0.356882 0.104762 120 105 78
0.391365 0.356882 0.109524 172 147 125
0.394150 0.356882 0.106667 130 108 88
0.396936 0.356882 0.100000 120 102 79
0.399721 0.356882 0.095238 156 137 100
0.402507 0.356882 0.094286 119 97 85
0.405292 0.356882 0.096190 110 96 69
0.408078 0.356882 0.097143 111 92 63
0.410864 0.356882 0.095238 109 90 69
0.413649 0.356882 0.088571 77 74 50
0.416435 0.356882 0.078095 121 102 78
0.419220 0.356882 0.070476 136 121 82
0.422006 0.356882 0.068571 124 111 72
0.424791 0.356882 0.074286 151 136 101
0.427577 0.356882 0.086667 151 136 112
0.430362 0.356882 0.105714 121 117 72
0.433148 0.356882 0.132381 159 156 124
0.435933 0.356882 0.159048 126 110 88
0.438719 0.356882 0.179048 85 73 45
0.441504 0.356882 0.186667 175 175 114
0.444290 0.356882 0.185714 86 94 44
0.447075 0.356882 0.183810 129 130 79
0.449861 0.356882 0.185714 125 120 57
0.452646 0.356882 0.192381 97 111 41
0.455432 0.356882 0.197143 119 124 63
0.458217 0.356882 0.191429 131 136 89
0.461003 0.356882 0.175238 87 81 65
0.463788 0.356882 0.149524 91 96 53
0.466574 0.356882 0.120000 135 134 87
0.469359 0.356882 0.095238 135 120 93
0.472145 0.356882 0.077143 137 128 89
0.474930 0.356882 0.066667 99 83 60
0.477716 0.356882 0.061905 75 76 56
0.480501 0.356882 0.060000 60 54 34
0.483287 0.356882 0.056190 61 52 31
0.486072 0.356882 0.049524 59 52 32
0.488858 0.356882 0.040952 78 73 55
0.491643 0.356882 0.031429 73 64 49
0.494429 0.356882 0.026667 56 61 31
0.497214 0.356882 0.023810 30 36 19
0.500000 0.356882 0.022857 3 5 3
-0.500000 0.354094 0.000000 12 17 11
-0.497214 0.354094 0.000000 19 27 16
-0.494429 0.354094 0.000000 25 27 21
-0.491643 0.354094 0.000000 21 23 21
-0.488858 0.354094 0.004762 3 4 3
-0.486072 0.354094 0.018095 3 2 1
-0.483287 0.354094 0.035238 5 5 3
-0.480501 0.354094 0.053333 16 14 9
-0.477716 0.354094 0.064762 69 80 53
-0.474930 0.354094 0.068571 84 102 64
-0.472145 0.354094 0.070476 49 57 41
-0.469359 0.354094 0.070476 40 50 26
-0.466574 0.354094 0.069524 57 55 43
-0.463788 0.354094 0.070476 79 75 55
-0.461003 0.354094 0.070476 83 90 57
-0.458217 0.354094 0.071429 62 66 45
-0.455432 0.354094 0.073333 33 39 19
-0.452646 0.354094 0.076190 39 46 23
-0.449861 0.354094 0.077143 82 82 58
-0.447075 0.354094 0.080000 101 109 76
-0.444290 0.354094 0.083810 84 89 64
-0.441504 0.354094 0.086667 104 117 72
-0.438719 0.354094 0.087619 101 115 74
-0.435933 0.354094 0.083810 121 125 110
-0.433148 0.354094 0.079048 77 80 64
-0.430362 0.354094 0.073333 40 34 28
-0.427577 0.354094 0.068571 34 25 21
-0.424791 0.354094 0.063810 93 95 62
-0.422006 0.354094 0.060000 82 86 58
-0.419220 0.354094 0.057143 64 62 42
-0.416435 0.354094 0.056190 74 78 52
-0.413649 0.354094 0.056190 88 103 68
-0.410864 0.354094 0.059048 48 47 35
-0.408078 0.354094 0.066667 55 55 38
-0.405292 0.354094 0.077143 57 62 32
-0.402507 0.354094 0.088571 47 59 33
-0.399721 0.354094 0.100000 57 71 47
-0.396936 0.354094 0.109524 107 115 76
-0.394150 0.354094 0.114286 40 39 27
-0.391365 0.354094 0.113333 97 112 77
-0.388579 0.354094 0.107619 69 58 42
-0.385794 0.354094 0.100000 108 107 62
-0.383008 0.354094 0.090476 107 116 70
-0.380223 0.354094 0.081905 63 58 34
-0.377437 0.354094 0.072381 85 82 49
-0.374652 0.354094 0.063810 66 70 41
-0.371866 0.354094 0.058095 22 23 16
-0.369081 0.354094 0.059048 28 25 23
-0.366295 0.354094 0.063810 47 46 36
-0.363510 0.354094 0.067619 57 65 39
-0.360724 0.354094 0.068571 88 85 60
-0.357939 0.354094 0.066667 110 115 75
-0.355153 0.354094 0.063810 89 92 58
-0.352368 0.354094 0.060000 98 96 74
-0.349582 0.354094 0.053333 92 87 74
-0.346797 0.354094 0.047619 64 56 40
-0.344011 0.354094 0.040952 114 97 75
-0.341226 0.354094 0.032381 52 51 31
-0.338440 0.354094 0.024762 24 27 14
-0.335655 0.354094 0.020952 48 46 33
-0.332869 0.354094 0.022857 41 43 30
-0.330084 0.354094 0.028571 61 53 40
-0.327298 0.354094 0.035238 117 108 78
-0.324513 0.354094 0.039048 78 78 53
-0.321727 0.354094 0.040000 61 48 32
-0.318942 0.354094 0.037143 138 120 98
-0.316156 0.354094 0.032381 103 102 76
-0.313370 0.354094 0.027619 128 130 104
-0.310585 0.354094 0.024762 92 80 53
-0.307799 0.354094 0.024762 83 74 53
-0.305014 0.354094 0.027619 65 64 48
-0.302228 0.354094 0.033333 52 44 37
-0.299443 0.354094 0.040952 76 71 59
-0.296657 0.354094 0.047619 101 93 68
-0.293872 0.354094 0.051429 126 118 86
-0.291086 0.354094 0.054286 122 115 89
-0.288301 0.354094 0.052381 92 94 80
-0.285515 0.354094 0.046667 67 56 35
-0.282730 0.354094 0.037143 107 102 73
-0.279944 0.354094 0.024762 56 49 35
-0.277159 0.354094 0.011429 46 44 28
-0.274373 0.354094 0.000952 58 46 42
-0.271588 0.354094 0.000000 76 60 56
-0.268802 0.354094 0.000000 84 75 72
-0.266017 0.354094 0.008571 65 59 57
-0.263231 0.354094 0.022857 58 47 42
-0.260446 0.354094 0.037143 139 123 102
-0.257660 0.354094 0.042857 158 145 130
-0.254875 0.354094 0.040000 82 70 58
-0.252089 0.354094 0.031429 65 56 34
-0.249304 0.354094 0.020000 88 90 63
-0.246518 0.354094 0.008571 137 126 98
-0.243733 0.354094 0.000000 118 100 69
-0.240947 0.354094 0.000000 84 68 54
-0.238162 0.354094 0.000000 106 89 84
-0.235376 0.354094 0.000000 69 63 60
-0.232591 0.354094 0.002857 41 31 29
-0.229805 0.354094 0.012381 128 114 104
-0.227019 0.354094 0.022857 157 149 141
-0.224234 0.354094 0.034286 140 128 126
-0.221448 0.354094 0.045714 82 60 56
-0.218663 0.354094 0.053333 142 111 96
-0.215877 0.354094 0.054286 158 137 121
-0.213092 0.354094 0.047619 158 137 119
-0.210306 0.354094 0.036190 107 88 78
-0.207521 0.354094 0.023810 151 148 140
-0.204735 0.354094 0.014286 103 105 87
-0.201950 0.354094 0.005714 27 25 22
-0.199164 0.354094 0.000000 78 72 69
-0.196379 0.354094 0.001905 47 43 41
-0.193593 0.354094 0.009524 11 10 10
-0.190808 0.354094 0.023810 16 17 14
-0.188022 0.354094 0.032381 87 80 66
-0.185237 0.354094 0.032381 163 151 151
-0.182451 0.354094 0.021905 130 101 96
-0.179666 0.354094 0.008571 123 99 87
-0.176880 0.354094 0.000000 117 94 86
-0.174095 0.354094 0.000000 107 81 73
-0.171309 0.354094 0.000000 96 81 74
-0.168524 0.354094 0.000000 121 110 110
-0.165738 0.354094 0.000000 40 33 32
-0.162953 0.354094 0.000000 72 55 49
-0.160167 0.354094 0.000000 101 80 75
-0.157382 0.354094 0.000952 80 61 60
-0.154596 0.354094 0.007619 60 47 45
-0.151811 0.354094 0.011429 52 44 44
-0.149025 0.354094 0.010476 47 42 41
-0.146240 0.354094 0.006667 65 54 51
-0.143454 0.354094 0.002857 83 63 58
-0.140669 0.354094 0.000952 117 102 77
-0.137883 0.354094 0.000000 167 145 129
-0.135098 0.354094 0.000000 108 91 90
-0.132312 0.354094 0.000000 44 36 34
-0.129526 0.354094 0.000000 69 57 57
-0.126741 0.354094 0.007619 105 96 94
-0.123955 0.354094 0.027619 115 97 95
-0.121170 0.354094 0.054286 157 136 130
-0.118384 0.354094 0.078095 193 172 165
-0.115599 0.354094 0.095238 156 133 117
-0.112813 0.354094 0.101905 188 172 162
-0.110028 0.354094 0.100952 221 214 212
-0.107242 0.354094 0.093333 177 150 140
-0.104457 0.354094 0.080000 133 114 78
-0.101671 0.354094 0.063810 126 118 87
-0.098886 0.354094 0.041905 126 124 112
-0.096100 0.354094 0.020000 78 72 62
-0.093315 0.354094 0.003810 78 67 60
-0.090529 0.354094 0.000000 74 61 57
-0.087744 0.354094 0.000000 77 65 65
-0.084958 0.354094 0.000000 86 75 72
-0.082173 0.354094 0.006667 85 74 61
-0.079387 0.354094 0.026667 115 97 81
-0.076602 0.354094 0.047619 165 134 116
-0.073816 0.354094 0.060000 157 140 107
-0.071031 0.354094 0.058095 194 191 180
-0.068245 0.354094 0.043810 114 93 79
-0.065460 0.354094 0.024762 98 72 58
-0.062674 0.354094 0.008571 91 77 55
-0.059889 0.354094 0.000000 106 107 77
-0.057103 0.354094 0.000000 65 60 57
-0.054318 0.354094 0.000000 50 45 43
-0.051532 0.354094 0.002857 50 46 42
-0.048747 0.354094 0.014286 73 64 62
-0.045961 0.354094 0.028571 156 135 126
-0.043175 0.354094 0.040952 146 127 116
-0.040390 0.354094 0.051429 132 109 103
-0.037604 0.354094 0.057143 206 180 174
-0.034819 0.354094 0.056190 151 116 108
-0.032033 0.354094 0.048571 172 136 119
-0.029248 0.354094 0.037143 122 94 77
-0.026462 0.354094 0.025714 97 67 60
-0.023677 0.354094 0.016190 94 69 58
-0.020891 0.354094 0.008571 116 87 69
-0.018106 0.354094 0.000000 111 92 75
-0.015320 0.354094 0.000000 54 44 39
-0.012535 0.354094 0.000000 50 37 35
-0.009749 0.354094 0.000000 78 59 57
-0.006964 0.354094 0.008571 102 81 73
-0.004178 0.354094 0.028571 120 102 95
-0.001393 0.354094 0.048571 186 172 169
0.001393 0.354094 0.059048 152 134 129
0.004178 0.354094 0.058095 161 137 131
0.006964 0.354094 0.051429 133 104 84
0.009749 0.354094 0.042857 144 127 96
0.012535 0.354094 0.036190 152 135 105
0.015320 0.354094 0.028571 148 120 109
0.018106 0.354094 0.020000 113 98 74
0.020891 0.354094 0.013333 72 65 47
0.023677 0.354094 0.011429 75 70 52
0.026462 0.354094 0.013333 130 118 89
0.029248 0.354094 0.017143 104 105 73
0.032033 0.354094 0.020952 44 42 33
0.034819 0.354094 0.027619 22 14 16
0.037604 0.354094 0.034286 13 11 12
0.040390 0.354094 0.040000 64 66 53
0.043175 0.354094 0.042857 114 119 92
0.045961 0.354094 0.041905 88 87 66
0.048747 0.354094 0.041905 113 107 88
0.051532 0.354094 0.042857 82 67 55
0.054318 0.354094 0.040952 72 63 54
0.057103 0.354094 0.036190 43 50 29
0.059889 0.354094 0.030476 57 63 43
0.062674 0.354094 0.023810 31 29 27
0.065460 0.354094 0.017143 42 48 38
0.068245 0.354094 0.012381 31 29 26
0.071031 0.354094 0.014286 32 28 26
0.073816 0.354094 0.029524 84 84 63
0.076602 0.354094 0.054286 68 59 48
0.079387 0.354094 0.081905 110 103 86
0.082173 0.354094 0.100952 187 183 168
0.084958 0.354094 0.105714 139 137 125
0.087744 0.354094 0.098095 71 69 49
0.090529 0.354094 0.083810 83 72 53
0.093315 0.354094 0.071429 128 122 101
0.096100 0.354094 0.060952 150 152 130
0.098886 0.354094 0.048571 81 71 48
0.101671 0.354094 0.040952 72 66 51
0.104457 0.354094 0.038095 32 38 26
0.107242 0.354094 0.040000 22 26 15
0.110028 0.354094 0.043810 41 44 32
0.112813 0.354094 0.044762 71 56 54
0.115599 0.354094 0.043810 81 76 55
0.118384 0.354094 0.040000 55 60 38
0.121170 0.354094 0.037143 104 99 93
0.123955 0.354094 0.037143 24 29 14
0.126741 0.354094 0.034286 81 78 66
0.129526 0.354094 0.029524 125 125 93
0.132312 0.354094 0.023810 95 95 70
0.135098 0.354094 0.018095 102 89 73
0.137883 0.354094 0.015238 115 103 81
0.140669 0.354094 0.013333 96 97 80
0.143454 0.354094 0.009524 91 87 71
0.146240 0.354094 0.010476 53 54 45
0.149025 0.354094 0.019048 85 79 65
0.151811 0.354094 0.035238 76 52 45
0.154596 0.354094 0.054286 77 73 56
0.157382 0.354094 0.066667 82 88 59
0.160167 0.354094 0.068571 66 58 35
0.162953 0.354094 0.061905 106 93 64
0.165738 0.354094 0.050476 123 104 89
0.168524 0.354094 0.043810 83 74 68
0.171309 0.354094 0.042857 104 92 87
0.174095 0.354094 0.045714 101 90 74
0.176880 0.354094 0.050476 115 107 85
0.179666 0.354094 0.052381 94 85 70
0.182451 0.354094 0.050476 113 122 88
0.185237 0.354094 0.047619 60 54 42
0.188022 0.354094 0.048571 55 52 37
0.190808 0.354094 0.055238 109 95 74
0.193593 0.354094 0.065714 56 45 38
0.196379 0.354094 0.075238 58 70 43
0.199164 0.354094 0.079048 143 144 122
0.201950 0.354094 0.077143 90 78 60
0.204735 0.354094 0.073333 72 66 53
0.207521 0.354094 0.067619 58 53 46
0.210306 0.354094 0.060952 35 26 21
0.213092 0.354094 0.051429 38 28 28
0.215877 0.354094 0.042857 21 15 15
0.218663 0.354094 0.037143 43 38 33
0.221448 0.354094 0.038095 94 86 72
0.224234 0.354094 0.044762 108 110 87
0.227019 0.354094 0.058095 74 80 55
0.229805 0.354094 0.076190 28 28 20
0.232591 0.354094 0.091429 45 52 32
0.235376 0.354094 0.101905 110 129 70
0.238162 0.354094 0.103810 104 109 64
0.240947 0.354094 0.098095 54 63 34
0.243733 0.354094 0.086667 87 92 61
0.246518 0.354094 0.074286 109 119 80
0.249304 0.354094 0.065714 113 108 82
0.252089 0.354094 0.060952 108 111 77
0.254875 0.354094 0.061905 61 60 44
0.257660 0.354094 0.064762 133 108 93
0.260446 0.354094 0.064762 165 136 115
0.263231 0.354094 0.061905 99 78 64
0.266017 0.354094 0.058095 61 45 36
0.268802 0.354094 0.058095 55 45 35
0.271588 0.354094 0.060000 110 88 66
0.274373 0.354094 0.062857 126 104 90
0.277159 0.354094 0.062857 167 153 128
0.279944 0.354094 0.060952 112 105 80
0.282730 0.354094 0.059048 141 124 114
0.285515 0.354094 0.055238 114 106 78
0.288301 0.354094 0.047619 80 79 50
0.291086 0.354094 0.037143 49 45 38
0.293872 0.354094 0.027619 99 89 83
0.296657 0.354094 0.026667 98 90 79
0.299443 0.354094 0.034286 86 77 71
0.302228 0.354094 0.051429 88 74 67
0.305014 0.354094 0.072381 87 85 58
0.307799 0.354094 0.088571 131 135 127
0.310585 0.354094 0.095238 166 161 160
0.313370 0.354094 0.092381 121 105 84
0.316156 0.354094 0.082857 148 147 94
0.318942 0.354094 0.071429 98 94 54
0.321727 0.354094 0.064762 107 103 69
0.324513 0.354094 0.064762 81 82 53
0.327298 0.354094 0.074286 99 99 77
0.330084 0.354094 0.089524 127 122 87
0.332869 0.354094 0.104762 134 115 97
0.335655 0.354094 0.117143 75 62 50
0.338440 0.354094 0.126667 77 69 52
0.341226 0.354094 0.132381 106 118 85
0.344011 0.354094 0.136190 127 112 86
0.346797 0.354094 0.131429 96 78 64
0.349582 0.354094 0.120000 128 120 103
0.352368 0.354094 0.103810 86 70 53
0.355153 0.354094 0.089524 122 103 90
0.357939 0.354094 0.081905 118 109 84
0.360724 0.354094 0.080952 55 49 37
0.363510 0.354094 0.084762 128 110 96
0.366295 0.354094 0.091429 171 151 128
0.369081 0.354094 0.096190 125 111 84
0.371866 0.354094 0.097143 72 66 50
0.374652 0.354094 0.093333 117 100 84
0.377437 0.354094 0.086667 135 130 91
0.380223 0.354094 0.082857 135 129 86
0.383008 0.354094 0.081905 126 107 71
0.385794 0.354094 0.087619 98 83 59
0.388579 0.354094 0.093333 73 57 45
0.391365 0.354094 0.097143 142 120 101
0.394150 0.354094 0.096190 142 121 98
0.396936 0.354094 0.093333 154 130 103
0.399721 0.354094 0.092381 142 118 92
0.402507 0.354094 0.093333 163 145 118
0.405292 0.354094 0.095238 163 135 102
0.408078 0.354094 0.097143 168 153 100
0.410864 0.354094 0.096190 132 113 83
0.413649 0.354094 0.090476 108 88 71
0.416435 0.354094 0.079048 112 93 72
0.419220 0.354094 0.070476 88 74 62
0.422006 0.354094 0.069524 113 100 66
0.424791 0.354094 0.076190 143 124 91
0.427577 0.354094 0.090476 149 124 92
0.430362 0.354094 0.111429 108 103 62
0.433148 0.354094 0.139048 150 140 89
0.435933 0.354094 0.164762 163 157 105
0.438719 0.354094 0.182857 167 170 136
0.441504 0.354094 0.190476 135 133 82
0.444290 0.354094 0.189524 102 100 42
0.447075 0.354094 0.186667 116 118 56
0.449861 0.354094 0.188571 149 140 99
0.452646 0.354094 0.194286 146 150 76
0.455432 0.354094 0.199048 125 145 40
0.458217 0.354094 0.194286 190 200 160
0.461003 0.354094 0.178095 180 175 145
0.463788 0.354094 0.151429 109 116 52
0.466574 0.354094 0.122857 101 90 60
0.469359 0.354094 0.098095 83 69 50
0.472145 0.354094 0.080952 102 88 63
0.474930 0.354094 0.072381 135 126 111
0.477716 0.354094 0.067619 52 53 35
0.480501 0.354094 0.063810 45 45 22
0.483287 0.354094 0.059048 86 88 47
0.486072 0.354094 0.052381 75 76 42
0.488858 0.354094 0.044762 53 51 39
0.491643 0.354094 0.036190 47 49 31
0.494429 0.354094 0.030476 44 47 25
0.497214 0.354094 0.026667 38 41 21
0.500000 0.354094 0.023810 18 13 10
-0.500000 0.351306 0.000000 17 24 16
-0.497214 0.351306 0.000000 21 27 17
-0.494429 0.351306 0.000000 21 23 16
-0.491643 0.351306 0.000000 10 13 7
-0.488858 0.351306 0.006667 13 15 8
-0.486072 0.351306 0.020000 27 33 21
-0.483287 0.351306 0.037143 3 3 3
-0.480501 0.351306 0.052381 52 60 37
-0.477716 0.351306 0.062857 80 94 59
-0.474930 0.351306 0.066667 40 48 34
-0.472145 0.351306 0.067619 28 31 14
-0.469359 0.351306 0.067619 79 92 57
-0.466574 0.351306 0.066667 30 31 23
-0.463788 0.351306 0.067619 92 89 83
-0.461003 0.351306 0.068571 84 91 60
-0.458217 0.351306 0.069524 42 54 26
-0.455432 0.351306 0.070476 44 44 34
-0.452646 0.351306 0.072381 83 88 66
-0.449861 0.351306 0.075238 95 107 72
-0.447075 0.351306 0.080000 73 78 57
-0.444290 0.351306 0.084762 68 75 45
-0.441504 0.351306 0.086667 106 119 78
-0.438719 0.351306 0.086667 117 132 80
-0.435933 0.351306 0.082857 80 93 42
-0.433148 0.351306 0.076190 52 53 34
-0.430362 0.351306 0.070476 77 88 61
-0.427577 0.351306 0.066667 66 81 56
-0.424791 0.351306 0.063810 51 58 42
-0.422006 0.351306 0.061905 96 94 72
-0.419220 0.351306 0.060000 111 113 91
-0.416435 0.351306 0.058095 87 100 69
-0.413649 0.351306 0.058095 91 95 67
-0.410864 0.351306 0.061905 72 74 49
-0.408078 0.351306 0.069524 84 88 62
-0.405292 0.351306 0.078095 112 129 78
-0.402507 0.351306 0.089524 68 79 44
-0.399721 0.351306 0.101905 25 31 18
-0.396936 0.351306 0.112381 15 25 7
-0.394150 0.351306 0.117143 104 106 90
-0.391365 0.351306 0.115238 62 65 50
-0.388579 0.351306 0.109524 73 67 42
-0.385794 0.351306 0.100952 85 90 57
-0.383008 0.351306 0.092381 61 64 46
-0.380223 0.351306 0.083810 80 89 57
-0.377437 0.351306 0.074286 91 91 60
-0.374652 0.351306 0.065714 79 79 56
-0.371866 0.351306 0.060952 40 42 29
-0.369081 0.351306 0.060952 30 30 24
-0.366295 0.351306 0.065714 48 44 35
-0.363510 0.351306 0.070476 64 59 44
-0.360724 0.351306 0.073333 104 105 73
-0.357939 0.351306 0.073333 99 107 63
-0.355153 0.351306 0.070476 103 107 73
-0.352368 0.351306 0.065714 80 88 64
-0.349582 0.351306 0.057143 52 53 45
-0.346797 0.351306 0.047619 29 21 13
-0.344011 0.351306 0.039048 62 59 41
-0.341226 0.351306 0.031429 106 101 70
-0.338440 0.351306 0.024762 67 67 42
-0.335655 0.351306 0.022857 73 77 46
-0.332869 0.351306 0.025714 46 40 30
-0.330084 0.351306 0.031429 48 33 29
-0.327298 0.351306 0.038095 98 78 59
-0.324513 0.351306 0.040000 117 116 85
-0.321727 0.351306 0.038095 37 31 19
-0.318942 0.351306 0.033333 117 114 74
-0.316156 0.351306 0.027619 103 110 72
-0.313370 0.351306 0.021905 114 102 82
-0.310585 0.351306 0.020000 106 91 68
-0.307799 0.351306 0.020952 67 69 42
-0.305014 0.351306 0.024762 58 59 40
-0.302228 0.351306 0.032381 30 21 21
-0.299443 0.351306 0.040952 85 79 64
-0.296657 0.351306 0.046667 129 125 87
-0.293872 0.351306 0.050476 94 83 64
-0.291086 0.351306 0.052381 67 72 56
-0.288301 0.351306 0.050476 86 89 66
-0.285515 0.351306 0.042857 112 112 83
-0.282730 0.351306 0.032381 77 75 63
-0.279944 0.351306 0.020952 77 72 67
-0.277159 0.351306 0.010476 74 64 54
-0.274373 0.351306 0.001905 41 33 32
-0.271588 0.351306 0.000000 15 16 16
-0.268802 0.351306 0.000000 31 29 27
-0.266017 0.351306 0.003810 33 32 28
-0.263231 0.351306 0.014286 47 40 37
-0.260446 0.351306 0.025714 89 82 75
-0.257660 0.351306 0.033333 103 95 81
-0.254875 0.351306 0.034286 100 86 72
-0.252089 0.351306 0.030476 60 45 32
-0.249304 0.351306 0.023810 145 136 104
-0.246518 0.351306 0.013333 128 103 95
-0.243733 0.351306 0.003810 103 82 60
-0.240947 0.351306 0.000000 77 59 51
-0.238162 0.351306 0.000000 60 51 47
-0.235376 0.351306 0.000000 56 51 48
-0.232591 0.351306 0.000952 64 52 52
-0.229805 0.351306 0.010476 115 104 85
-0.227019 0.351306 0.021905 133 120 91
-0.224234 0.351306 0.033333 108 94 77
-0.221448 0.351306 0.045714 106 88 76
-0.218663 0.351306 0.055238 171 157 150
-0.215877 0.351306 0.057143 159 147 140
-0.213092 0.351306 0.051429 92 92 74
-0.210306 0.351306 0.040952 84 73 58
-0.207521 0.351306 0.029524 72 64 53
-0.204735 0.351306 0.019048 87 79 66
-0.201950 0.351306 0.011429 39 39 33
-0.199164 0.351306 0.005714 69 71 62
-0.196379 0.351306 0.005714 76 67 55
-0.193593 0.351306 0.012381 54 46 40
-0.190808 0.351306 0.023810 52 46 39
-0.188022 0.351306 0.030476 137 113 95
-0.185237 0.351306 0.028571 106 98 86
-0.182451 0.351306 0.019048 83 65 57
-0.179666 0.351306 0.006667 83 57 53
-0.176880 0.351306 0.000000 122 102 90
-0.174095 0.351306 0.000000 131 117 115
-0.171309 0.351306 0.000000 71 67 64
-0.168524 0.351306 0.000000 126 119 115
-0.165738 0.351306 0.000000 67 55 49
-0.162953 0.351306 0.000000 97 73 66
-0.160167 0.351306 0.000000 104 85 80
-0.157382 0.351306 0.000000 126 105 101
-0.154596 0.351306 0.000952 119 103 99
-0.151811 0.351306 0.006667 104 92 82
-0.149025 0.351306 0.008571 108 96 85
-0.146240 0.351306 0.006667 85 71 69
-0.143454 0.351306 0.002857 95 70 59
-0.140669 0.351306 0.000000 93 79 55
-0.137883 0.351306 0.000000 84 75 63
-0.135098 0.351306 0.000000 60 59 53
-0.132312 0.351306 0.000000 33 33 27
-0.129526 0.351306 0.000000 48 45 43
-0.126741 0.351306 0.005714 57 50 48
-0.123955 0.351306 0.023810 69 52 50
-0.121170 0.351306 0.048571 164 136 123
-0.118384 0.351306 0.070476 163 141 113
-0.115599 0.351306 0.085714 161 134 115
-0.112813 0.351306 0.091429 129 105 90
-0.110028 0.351306 0.089524 149 131 124
-0.107242 0.351306 0.084762 134 110 95
-0.104457 0.351306 0.074286 124 106 83
-0.101671 0.351306 0.059048 186 173 164
-0.098886 0.351306 0.037143 137 124 117
-0.096100 0.351306 0.016190 121 105 90
-0.093315 0.351306 0.001905 98 79 69
-0.090529 0.351306 0.000000 63 51 50
-0.087744 0.351306 0.000000 55 49 47
-0.084958 0.351306 0.000000 73 63 64
-0.082173 0.351306 0.003810 73 64 55
-0.079387 0.351306 0.021905 140 123 103
-0.076602 0.351306 0.041905 98 64 53
-0.073816 0.351306 0.055238 164 156 138
-0.071031 0.351306 0.055238 166 153 145
-0.068245 0.351306 0.041905 99 65 53
-0.065460 0.351306 0.021905 130 100 83
-0.062674 0.351306 0.005714 91 82 59
-0.059889 0.351306 0.000000 115 107 98
-0.057103 0.351306 0.000000 108 94 90
-0.054318 0.351306 0.000000 97 93 84
-0.051532 0.351306 0.004762 89 83 76
-0.048747 0.351306 0.017143 67 52 50
-0.045961 0.351306 0.031429 136 116 108
-0.043175 0.351306 0.042857 131 112 102
-0.040390 0.351306 0.050476 111 90 83
-0.037604 0.351306 0.054286 116 94 85
-0.034819 0.351306 0.053333 139 111 95
-0.032033 0.351306 0.047619 132 119 95
-0.029248 0.351306 0.039048 96 76 61
