ply
format ascii 1.0
element vertex 1271
property float x
property float y
property float z
property uchar red
property uchar green
property uchar blue
end_header
0.357939 0.078068 0.118026 93 89 78
0.360724 0.078068 0.115193 146 141 130
0.363510 0.078068 0.107639 62 50 46
0.366295 0.078068 0.095365 32 26 21
0.369081 0.078068 0.084979 67 60 51
0.371866 0.078068 0.076481 52 49 45
0.374652 0.078068 0.072704 45 46 40
0.377437 0.078068 0.071760 36 35 28
0.380223 0.078068 0.073648 59 50 43
0.383008 0.078068 0.078369 27 22 17
0.385794 0.078068 0.082146 25 28 14
0.388579 0.078068 0.083090 43 42 27
0.391365 0.078068 0.080258 50 49 40
0.394150 0.078068 0.078369 100 94 89
0.396936 0.078068 0.081202 74 63 54
0.399721 0.078068 0.087811 89 82 74
0.402507 0.078068 0.091588 210 212 210
0.405292 0.078068 0.085923 128 121 119
0.408078 0.078068 0.074592 57 48 41
0.410864 0.078068 0.063262 82 71 61
0.413649 0.078068 0.059485 26 19 16
0.416435 0.078068 0.064206 67 64 56
0.419220 0.078068 0.075536 78 82 59
0.422006 0.078068 0.087811 74 82 46
0.424791 0.078068 0.097253 30 30 17
0.427577 0.078068 0.103863 64 63 49
0.430362 0.078068 0.108584 97 96 85
0.433148 0.078068 0.111416 63 60 45
0.435933 0.078068 0.113305 51 47 36
0.438719 0.078068 0.114249 86 78 69
0.441504 0.078068 0.112361 109 100 96
0.444290 0.078068 0.107639 99 93 88
0.447075 0.078068 0.100086 97 93 79
0.449861 0.078068 0.095365 75 72 55
0.452646 0.078068 0.090644 41 38 30
0.455432 0.078068 0.085923 56 57 44
0.458217 0.078068 0.084034 103 101 89
0.461003 0.078068 0.085923 93 83 73
0.463788 0.078068 0.094421 52 46 34
0.466574 0.078068 0.109528 84 79 66
0.469359 0.078068 0.127468 78 72 60
0.472145 0.078068 0.141631 37 41 27
0.474930 0.078068 0.144464 116 116 105
0.477716 0.078068 0.135966 137 128 115
0.480501 0.078068 0.123691 88 80 72
0.483287 0.078068 0.112361 91 84 70
0.486072 0.078068 0.103863 111 100 90
0.488858 0.078068 0.092532 81 77 64
0.491643 0.078068 0.077425 48 43 27
0.494429 0.078068 0.064206 95 93 94
0.497214 0.078068 0.058541 98 86 87
0.500000 0.078068 0.057597 11 5 4
-0.500000 0.075280 0.135021 101 88 79
-0.497214 0.075280 0.126524 155 152 144
-0.494429 0.075280 0.110472 92 88 77
-0.491643 0.075280 0.090644 68 66 50
-0.488858 0.075280 0.072704 46 40 31
-0.486072 0.075280 0.062318 78 76 71
-0.483287 0.075280 0.057597 35 31 29
-0.480501 0.075280 0.061373 62 52 47
-0.477716 0.075280 0.068927 95 92 89
-0.474930 0.075280 0.079313 58 50 43
-0.472145 0.075280 0.089700 25 23 20
-0.469359 0.075280 0.096309 14 9 9
-0.466574 0.075280 0.098197 65 53 48
-0.463788 0.075280 0.091588 124 114 105
-0.461003 0.075280 0.082146 128 119 113
-0.458217 0.075280 0.072704 173 163 159
-0.455432 0.075280 0.067039 146 143 143
-0.452646 0.075280 0.065150 133 124 121
-0.449861 0.075280 0.068927 83 72 63
-0.447075 0.075280 0.078369 105 90 83
-0.444290 0.075280 0.089700 206 198 200
-0.441504 0.075280 0.094421 175 181 178
-0.438719 0.075280 0.088755 40 37 31
-0.435933 0.075280 0.078369 52 45 35
-0.433148 0.075280 0.069871 47 42 27
-0.430362 0.075280 0.067039 102 94 75
-0.427577 0.075280 0.065150 96 88 88
-0.424791 0.075280 0.065150 46 35 28
-0.422006 0.075280 0.067039 73 58 48
-0.419220 0.075280 0.069871 155 147 142
-0.416435 0.075280 0.073648 116 105 101
-0.413649 0.075280 0.077425 107 92 87
-0.410864 0.075280 0.077425 189 186 186
-0.408078 0.075280 0.073648 93 83 79
-0.405292 0.075280 0.067983 102 87 81
-0.402507 0.075280 0.066094 130 127 122
-0.399721 0.075280 0.069871 53 48 43
-0.396936 0.075280 0.079313 47 40 28
-0.394150 0.075280 0.092532 77 74 55
-0.391365 0.075280 0.107639 70 72 46
-0.388579 0.075280 0.121803 104 102 75
-0.385794 0.075280 0.131245 104 98 86
-0.383008 0.075280 0.132189 100 94 74
-0.380223 0.075280 0.125579 183 181 174
-0.377437 0.075280 0.114249 164 162 156
-0.374652 0.075280 0.099142 65 57 54
-0.371866 0.075280 0.084979 113 107 107
-0.369081 0.075280 0.073648 97 92 88
-0.366295 0.075280 0.066094 78 70 61
-0.363510 0.075280 0.065150 79 67 59
-0.360724 0.075280 0.067983 53 43 39
-0.357939 0.075280 0.072704 117 109 96
-0.355153 0.075280 0.074592 100 94 87
-0.352368 0.075280 0.072704 16 11 9
-0.349582 0.075280 0.067983 65 54 45
-0.346797 0.075280 0.064206 81 75 59
-0.344011 0.075280 0.063262 81 74 61
-0.341226 0.075280 0.068927 69 65 53
-0.338440 0.075280 0.076481 35 32 23
-0.335655 0.075280 0.084034 84 75 62
-0.332869 0.075280 0.085923 170 155 136
-0.330084 0.075280 0.081202 151 140 117
-0.327298 0.075280 0.074592 126 119 96
-0.324513 0.075280 0.074592 91 81 72
-0.321727 0.075280 0.083090 100 88 75
-0.318942 0.075280 0.101030 101 86 78
-0.316156 0.075280 0.118026 201 197 197
-0.313370 0.075280 0.129356 176 178 178
-0.310585 0.075280 0.135021 137 137 139
-0.307799 0.075280 0.138798 169 169 167
-0.305014 0.075280 0.144464 87 87 78
-0.302228 0.075280 0.149185 20 18 14
-0.299443 0.075280 0.149185 37 35 27
-0.296657 0.075280 0.137854 104 101 87
-0.293872 0.075280 0.123691 92 95 61
-0.291086 0.075280 0.113305 49 44 35
-0.288301 0.075280 0.107639 118 98 80
-0.285515 0.075280 0.108584 160 136 114
-0.282730 0.075280 0.107639 148 136 111
-0.279944 0.075280 0.101974 126 115 96
-0.277159 0.075280 0.091588 107 97 79
-0.274373 0.075280 0.081202 87 75 66
-0.271588 0.075280 0.077425 91 77 70
-0.268802 0.075280 0.084034 89 77 68
-0.266017 0.075280 0.095365 82 81 59
-0.263231 0.075280 0.104807 81 79 44
-0.260446 0.075280 0.106695 87 86 57
-0.257660 0.075280 0.105751 104 97 68
-0.254875 0.075280 0.103863 87 83 54
-0.252089 0.075280 0.104807 175 170 167
-0.249304 0.075280 0.106695 113 109 105
-0.246518 0.075280 0.108584 57 55 44
-0.243733 0.075280 0.111416 125 115 113
-0.240947 0.075280 0.116137 129 119 110
-0.238162 0.075280 0.118970 18 9 2
-0.235376 0.075280 0.118970 105 91 74
-0.232591 0.075280 0.113305 192 179 153
-0.229805 0.075280 0.100086 133 124 111
-0.227019 0.075280 0.083090 87 76 67
-0.224234 0.075280 0.069871 85 67 58
-0.221448 0.075280 0.064206 121 99 83
-0.218663 0.075280 0.067039 92 83 71
-0.215877 0.075280 0.075536 82 78 60
-0.213092 0.075280 0.087811 30 24 18
-0.210306 0.075280 0.105751 69 64 51
-0.207521 0.075280 0.127468 48 42 36
-0.204735 0.075280 0.147296 178 175 175
-0.201950 0.075280 0.154850 223 224 223
-0.199164 0.075280 0.148240 90 80 68
-0.196379 0.075280 0.132189 57 52 35
-0.193593 0.075280 0.115193 110 107 96
-0.190808 0.075280 0.101974 157 144 123
-0.188022 0.075280 0.088755 117 97 78
-0.185237 0.075280 0.075536 101 99 69
-0.182451 0.075280 0.061373 104 93 76
-0.179666 0.075280 0.054764 99 85 76
-0.176880 0.075280 0.056652 63 54 48
-0.174095 0.075280 0.067039 41 31 28
-0.171309 0.075280 0.077425 146 143 141
-0.168524 0.075280 0.086867 156 158 160
-0.165738 0.075280 0.095365 86 83 82
-0.162953 0.075280 0.103863 138 137 136
-0.160167 0.075280 0.114249 56 52 48
-0.157382 0.075280 0.122747 80 71 66
-0.154596 0.075280 0.129356 39 32 27
-0.151811 0.075280 0.130300 52 49 34
-0.149025 0.075280 0.126524 53 53 34
-0.146240 0.075280 0.121803 110 103 93
-0.143454 0.075280 0.117082 165 150 130
-0.140669 0.075280 0.113305 129 119 108
-0.137883 0.075280 0.105751 153 147 140
-0.135098 0.075280 0.092532 106 95 87
-0.132312 0.075280 0.073648 96 84 78
-0.129526 0.075280 0.055708 61 54 51
-0.126741 0.075280 0.039657 47 41 35
-0.123955 0.075280 0.030215 66 61 56
-0.121170 0.075280 0.027382 99 88 86
-0.118384 0.075280 0.032103 95 86 78
-0.115599 0.075280 0.043433 80 75 67
-0.112813 0.075280 0.057597 94 87 79
-0.110028 0.075280 0.074592 71 64 58
-0.107242 0.075280 0.089700 91 85 69
-0.104457 0.075280 0.102918 79 70 59
-0.101671 0.075280 0.113305 80 74 58
-0.098886 0.075280 0.117082 108 100 80
-0.096100 0.075280 0.116137 82 71 59
-0.093315 0.075280 0.113305 62 59 37
-0.090529 0.075280 0.110472 75 62 40
-0.087744 0.075280 0.108584 80 69 51
-0.084958 0.075280 0.106695 105 98 92
-0.082173 0.075280 0.105751 129 116 103
-0.079387 0.075280 0.104807 147 142 134
-0.076602 0.075280 0.103863 129 117 98
-0.073816 0.075280 0.102918 110 97 82
-0.071031 0.075280 0.102918 99 90 63
-0.068245 0.075280 0.104807 108 100 77
-0.065460 0.075280 0.104807 79 70 64
-0.062674 0.075280 0.103863 37 33 32
-0.059889 0.075280 0.102918 51 48 40
-0.057103 0.075280 0.107639 66 68 36
-0.054318 0.075280 0.117082 39 34 23
-0.051532 0.075280 0.126524 70 64 50
-0.048747 0.075280 0.131245 141 143 138
-0.045961 0.075280 0.129356 132 131 118
-0.043175 0.075280 0.123691 117 109 91
-0.040390 0.075280 0.117082 67 62 42
-0.037604 0.075280 0.109528 74 68 59
-0.034819 0.075280 0.098197 127 115 98
-0.032033 0.075280 0.084979 112 96 82
-0.029248 0.075280 0.071760 113 95 84
-0.026462 0.075280 0.063262 100 84 73
-0.023677 0.075280 0.057597 125 112 91
-0.020891 0.075280 0.055708 134 121 93
-0.018106 0.075280 0.054764 147 133 113
-0.015320 0.075280 0.055708 136 127 121
-0.012535 0.075280 0.060429 95 89 82
-0.009749 0.075280 0.070815 88 77 65
-0.006964 0.075280 0.085923 113 96 93
-0.004178 0.075280 0.103863 151 137 101
-0.001393 0.075280 0.128412 96 92 46
0.001393 0.075280 0.157682 96 81 76
0.004178 0.075280 0.188841 153 134 111
0.006964 0.075280 0.211502 178 164 138
0.009749 0.075280 0.215279 203 190 164
0.012535 0.075280 0.199227 198 185 162
0.015320 0.075280 0.165236 158 143 126
0.018106 0.075280 0.122747 103 82 69
0.020891 0.075280 0.087811 128 114 93
0.023677 0.075280 0.067039 131 120 98
0.026462 0.075280 0.060429 78 71 58
0.029248 0.075280 0.061373 57 52 46
0.032033 0.075280 0.065150 28 25 22
0.034819 0.075280 0.069871 74 67 65
0.037604 0.075280 0.081202 148 139 135
0.040390 0.075280 0.099142 83 78 73
0.043175 0.075280 0.121803 79 75 70
0.045961 0.075280 0.142575 134 134 130
0.048747 0.075280 0.155794 95 92 82
0.051532 0.075280 0.160515 75 65 52
0.054318 0.075280 0.152961 48 40 29
0.057103 0.075280 0.140687 61 48 28
0.059889 0.075280 0.124635 113 95 79
0.062674 0.075280 0.116137 117 98 82
0.065460 0.075280 0.112361 118 102 82
0.068245 0.075280 0.109528 117 96 80
0.071031 0.075280 0.097253 37 28 23
0.073816 0.075280 0.077425 35 30 29
0.076602 0.075280 0.058541 47 39 33
0.079387 0.075280 0.050043 79 63 55
0.082173 0.075280 0.053820 76 67 50
0.084958 0.075280 0.069871 61 57 39
0.087744 0.075280 0.093476 146 148 144
0.090529 0.075280 0.118026 137 134 132
0.093315 0.075280 0.135021 122 121 118
0.096100 0.075280 0.138798 62 58 54
0.098886 0.075280 0.131245 109 106 98
0.101671 0.075280 0.119914 117 101 85
0.104457 0.075280 0.106695 102 98 79
0.107242 0.075280 0.095365 104 102 78
0.110028 0.075280 0.083090 124 111 86
0.112813 0.075280 0.070815 95 83 68
0.115599 0.075280 0.060429 96 90 71
0.118384 0.075280 0.055708 107 92 80
0.121170 0.075280 0.058541 102 81 68
0.123955 0.075280 0.065150 113 80 63
0.126741 0.075280 0.070815 131 113 99
0.129526 0.075280 0.072704 65 52 43
0.132312 0.075280 0.075536 78 70 58
0.135098 0.075280 0.084034 46 46 32
0.137883 0.075280 0.098197 62 65 55
0.140669 0.075280 0.114249 38 34 33
0.143454 0.075280 0.129356 89 91 91
0.146240 0.075280 0.140687 110 109 110
0.149025 0.075280 0.143519 37 32 24
0.151811 0.075280 0.139742 41 44 26
0.154596 0.075280 0.136910 66 62 45
0.157382 0.075280 0.140687 71 60 53
0.160167 0.075280 0.148240 107 100 92
0.162953 0.075280 0.150129 209 210 208
0.165738 0.075280 0.140687 174 164 162
0.168524 0.075280 0.120858 84 67 57
0.171309 0.075280 0.100086 73 55 45
0.174095 0.075280 0.087811 44 35 31
0.176880 0.075280 0.095365 49 50 38
0.179666 0.075280 0.117082 80 82 52
0.182451 0.075280 0.143519 101 112 69
0.185237 0.075280 0.165236 162 168 156
0.188022 0.075280 0.178455 181 179 177
0.190808 0.075280 0.180343 88 86 67
0.193593 0.075280 0.172790 43 43 32
0.196379 0.075280 0.159571 156 157 151
0.199164 0.075280 0.143519 162 154 142
0.201950 0.075280 0.128412 114 99 84
0.204735 0.075280 0.113305 108 99 88
0.207521 0.075280 0.100086 106 88 75
0.210306 0.075280 0.087811 113 96 82
0.213092 0.075280 0.074592 130 130 125
0.215877 0.075280 0.061373 136 138 135
0.218663 0.075280 0.049099 122 112 101
0.221448 0.075280 0.038712 85 74 64
0.224234 0.075280 0.032103 73 65 61
0.227019 0.075280 0.026438 111 98 88
0.229805 0.075280 0.024549 67 57 54
0.232591 0.075280 0.027382 48 44 41
0.235376 0.075280 0.037768 68 59 53
0.238162 0.075280 0.056652 57 44 36
0.240947 0.075280 0.078369 138 136 135
0.243733 0.075280 0.097253 111 109 105
0.246518 0.075280 0.112361 113 115 112
0.249304 0.075280 0.121803 129 129 121
0.252089 0.075280 0.126524 71 76 52
0.254875 0.075280 0.128412 117 105 89
0.257660 0.075280 0.126524 105 98 74
0.260446 0.075280 0.118970 166 167 161
0.263231 0.075280 0.103863 161 152 153
0.266017 0.075280 0.084034 104 95 81
0.268802 0.075280 0.067983 146 135 113
0.271588 0.075280 0.055708 114 104 94
0.274373 0.075280 0.049099 83 74 64
0.277159 0.075280 0.048155 90 82 73
0.279944 0.075280 0.051931 103 97 88
0.282730 0.075280 0.059485 102 97 86
0.285515 0.075280 0.069871 96 88 81
0.288301 0.075280 0.084979 92 86 80
0.291086 0.075280 0.103863 96 94 80
0.293872 0.075280 0.125579 133 130 124
0.296657 0.075280 0.142575 177 177 176
0.299443 0.075280 0.150129 168 166 162
0.302228 0.075280 0.150129 158 151 147
0.305014 0.075280 0.143519 158 147 143
0.307799 0.075280 0.138798 111 108 103
0.310585 0.075280 0.134077 107 101 79
0.313370 0.075280 0.123691 154 149 126
0.316156 0.075280 0.104807 94 90 76
0.318942 0.075280 0.080258 38 34 32
0.321727 0.075280 0.055708 79 75 68
0.324513 0.075280 0.040601 95 88 81
0.327298 0.075280 0.034936 71 65 61
0.330084 0.075280 0.039657 84 77 71
0.332869 0.075280 0.055708 48 42 40
0.335655 0.075280 0.077425 28 26 21
0.338440 0.075280 0.100086 61 58 47
0.341226 0.075280 0.115193 73 69 62
0.344011 0.075280 0.119914 100 100 84
0.346797 0.075280 0.117082 111 106 91
0.349582 0.075280 0.113305 100 92 80
0.352368 0.075280 0.114249 115 103 95
0.355153 0.075280 0.117082 101 93 73
0.357939 0.075280 0.120858 155 156 144
0.360724 0.075280 0.120858 191 188 186
0.363510 0.075280 0.116137 99 97 80
0.366295 0.075280 0.106695 92 88 65
0.369081 0.075280 0.095365 70 65 49
0.371866 0.075280 0.084979 112 108 101
0.374652 0.075280 0.076481 50 43 40
0.377437 0.075280 0.068927 28 26 20
0.380223 0.075280 0.066094 26 27 19
0.383008 0.075280 0.067983 19 18 14
0.385794 0.075280 0.070815 43 43 33
0.388579 0.075280 0.072704 53 52 47
0.391365 0.075280 0.072704 96 91 81
0.394150 0.075280 0.074592 127 115 96
0.396936 0.075280 0.081202 91 81 69
0.399721 0.075280 0.090644 125 115 103
0.402507 0.075280 0.096309 127 123 118
0.405292 0.075280 0.093476 57 50 48
0.408078 0.075280 0.083090 83 72 65
0.410864 0.075280 0.069871 79 66 56
0.413649 0.075280 0.062318 30 29 25
0.416435 0.075280 0.064206 79 74 57
0.419220 0.075280 0.071760 42 42 24
0.422006 0.075280 0.082146 32 35 15
0.424791 0.075280 0.090644 83 83 73
0.427577 0.075280 0.099142 103 93 85
0.430362 0.075280 0.108584 62 58 41
0.433148 0.075280 0.115193 76 70 47
0.435933 0.075280 0.118026 73 70 64
0.438719 0.075280 0.116137 161 166 166
0.441504 0.075280 0.109528 149 140 138
0.444290 0.075280 0.101974 58 47 38
0.447075 0.075280 0.092532 80 76 66
0.449861 0.075280 0.084979 63 61 43
0.452646 0.075280 0.079313 71 65 62
0.455432 0.075280 0.075536 93 80 75
0.458217 0.075280 0.075536 97 95 92
0.461003 0.075280 0.080258 101 100 95
0.463788 0.075280 0.092532 134 131 131
0.466574 0.075280 0.112361 80 72 63
0.469359 0.075280 0.134077 56 56 43
0.472145 0.075280 0.151073 136 143 120
0.474930 0.075280 0.153906 215 215 205
0.477716 0.075280 0.144464 109 98 86
0.480501 0.075280 0.127468 111 111 110
0.483287 0.075280 0.113305 192 196 195
0.486072 0.075280 0.103863 118 105 100
0.488858 0.075280 0.094421 78 67 60
0.491643 0.075280 0.084034 72 64 57
0.494429 0.075280 0.074592 78 74 70
0.497214 0.075280 0.070815 83 73 71
0.500000 0.075280 0.071760 24 16 15
-0.500000 0.072492 0.128412 62 56 52
-0.497214 0.072492 0.119914 181 180 180
-0.494429 0.072492 0.103863 159 161 156
-0.491643 0.072492 0.084979 75 73 61
-0.488858 0.072492 0.067983 60 54 47
-0.486072 0.072492 0.057597 57 51 46
-0.483287 0.072492 0.055708 38 30 26
-0.480501 0.072492 0.060429 53 48 44
-0.477716 0.072492 0.070815 29 25 25
-0.474930 0.072492 0.084979 48 42 33
-0.472145 0.072492 0.097253 109 107 85
-0.469359 0.072492 0.103863 105 102 88
-0.466574 0.072492 0.101974 86 80 66
-0.463788 0.072492 0.091588 66 58 51
-0.461003 0.072492 0.080258 118 106 105
-0.458217 0.072492 0.069871 161 158 158
-0.455432 0.072492 0.066094 126 124 126
-0.452646 0.072492 0.066094 145 139 137
-0.449861 0.072492 0.072704 118 111 99
-0.447075 0.072492 0.083090 45 38 36
-0.444290 0.072492 0.096309 102 92 90
-0.441504 0.072492 0.101030 92 89 81
-0.438719 0.072492 0.094421 37 32 23
-0.435933 0.072492 0.081202 42 40 29
-0.433148 0.072492 0.070815 64 61 46
-0.430362 0.072492 0.065150 33 33 21
-0.427577 0.072492 0.064206 37 29 25
-0.424791 0.072492 0.064206 55 45 40
-0.422006 0.072492 0.063262 79 64 54
-0.419220 0.072492 0.063262 148 143 138
-0.416435 0.072492 0.066094 125 123 115
-0.413649 0.072492 0.072704 137 128 122
-0.410864 0.072492 0.079313 152 149 149
-0.408078 0.072492 0.082146 60 52 51
-0.405292 0.072492 0.081202 105 96 94
-0.402507 0.072492 0.078369 122 124 125
-0.399721 0.072492 0.076481 40 33 33
-0.396936 0.072492 0.078369 100 92 79
-0.394150 0.072492 0.084034 64 60 43
-0.391365 0.072492 0.094421 58 58 33
-0.388579 0.072492 0.107639 68 69 42
-0.385794 0.072492 0.118026 84 82 53
-0.383008 0.072492 0.122747 117 113 99
-0.380223 0.072492 0.119914 113 105 99
-0.377437 0.072492 0.110472 187 182 175
-0.374652 0.072492 0.096309 110 101 94
-0.371866 0.072492 0.081202 74 60 56
-0.369081 0.072492 0.067983 162 157 157
-0.366295 0.072492 0.058541 82 70 63
-0.363510 0.072492 0.055708 97 82 76
-0.360724 0.072492 0.058541 61 55 45
-0.357939 0.072492 0.065150 156 156 155
-0.355153 0.072492 0.068927 129 120 116
-0.352368 0.072492 0.067039 94 84 78
-0.349582 0.072492 0.061373 62 56 50
-0.346797 0.072492 0.057597 31 28 21
-0.344011 0.072492 0.058541 50 45 34
-0.341226 0.072492 0.064206 82 71 54
-0.338440 0.072492 0.074592 75 73 47
-0.335655 0.072492 0.083090 133 128 103
-0.332869 0.072492 0.084979 124 110 96
-0.330084 0.072492 0.083090 125 111 94
-0.327298 0.072492 0.077425 143 133 111
-0.324513 0.072492 0.076481 92 81 68
-0.321727 0.072492 0.083090 105 93 70
-0.318942 0.072492 0.095365 105 91 73
-0.316156 0.072492 0.109528 98 87 78
-0.313370 0.072492 0.118970 113 102 87
-0.310585 0.072492 0.125579 87 78 60
-0.307799 0.072492 0.133133 97 87 76
-0.305014 0.072492 0.142575 107 105 101
-0.302228 0.072492 0.148240 50 50 46
-0.299443 0.072492 0.147296 39 35 27
-0.296657 0.072492 0.137854 77 73 67
-0.293872 0.072492 0.124635 51 44 37
-0.291086 0.072492 0.113305 50 40 33
-0.288301 0.072492 0.106695 79 68 59
-0.285515 0.072492 0.107639 80 60 50
-0.282730 0.072492 0.106695 134 114 91
-0.279944 0.072492 0.103863 147 132 113
-0.277159 0.072492 0.094421 95 88 70
-0.274373 0.072492 0.083090 70 60 47
-0.271588 0.072492 0.077425 122 110 86
-0.268802 0.072492 0.081202 104 95 78
-0.266017 0.072492 0.089700 99 94 85
-0.263231 0.072492 0.096309 89 86 61
-0.260446 0.072492 0.099142 83 79 61
-0.257660 0.072492 0.100086 124 117 101
-0.254875 0.072492 0.100086 77 73 55
-0.252089 0.072492 0.101030 70 66 58
-0.249304 0.072492 0.101030 70 66 56
-0.246518 0.072492 0.102918 39 38 26
-0.243733 0.072492 0.107639 20 12 10
-0.240947 0.072492 0.113305 119 113 99
-0.238162 0.072492 0.118026 82 78 66
-0.235376 0.072492 0.118970 78 70 49
-0.232591 0.072492 0.113305 151 147 113
-0.229805 0.072492 0.100086 150 134 111
-0.227019 0.072492 0.084979 107 83 69
-0.224234 0.072492 0.074592 115 94 66
-0.221448 0.072492 0.073648 115 98 81
-0.218663 0.072492 0.081202 120 112 104
-0.215877 0.072492 0.090644 121 120 102
-0.213092 0.072492 0.101974 81 82 71
-0.210306 0.072492 0.116137 85 83 64
-0.207521 0.072492 0.134077 67 57 49
-0.204735 0.072492 0.151073 189 186 182
-0.201950 0.072492 0.157682 134 135 133
-0.199164 0.072492 0.151073 52 50 32
-0.196379 0.072492 0.137854 59 50 33
-0.193593 0.072492 0.122747 78 67 62
-0.190808 0.072492 0.109528 144 139 135
-0.188022 0.072492 0.097253 144 135 119
-0.185237 0.072492 0.083090 141 133 118
-0.182451 0.072492 0.069871 113 104 94
-0.179666 0.072492 0.062318 71 61 56
-0.176880 0.072492 0.063262 68 58 51
-0.174095 0.072492 0.072704 69 63 56
-0.171309 0.072492 0.082146 70 62 59
-0.168524 0.072492 0.088755 77 64 55
-0.165738 0.072492 0.095365 38 30 24
-0.162953 0.072492 0.102918 131 129 125
-0.160167 0.072492 0.112361 127 128 124
-0.157382 0.072492 0.119914 91 86 80
-0.154596 0.072492 0.125579 70 67 53
-0.151811 0.072492 0.125579 118 112 98
-0.149025 0.072492 0.120858 73 66 51
-0.146240 0.072492 0.115193 145 139 133
-0.143454 0.072492 0.110472 131 126 116
-0.140669 0.072492 0.106695 91 82 72
-0.137883 0.072492 0.099142 196 194 191
-0.135098 0.072492 0.085923 131 130 128
-0.132312 0.072492 0.067983 92 79 67
-0.129526 0.072492 0.050987 76 70 63
-0.126741 0.072492 0.036824 50 42 37
-0.123955 0.072492 0.029270 99 90 81
-0.121170 0.072492 0.028326 114 94 81
-0.118384 0.072492 0.033047 87 71 60
-0.115599 0.072492 0.044378 45 40 34
-0.112813 0.072492 0.059485 142 132 127
-0.110028 0.072492 0.076481 83 82 79
-0.107242 0.072492 0.090644 27 24 10
-0.104457 0.072492 0.101030 46 37 27
-0.101671 0.072492 0.108584 56 52 32
-0.098886 0.072492 0.111416 70 68 48
-0.096100 0.072492 0.114249 31 29 16
-0.093315 0.072492 0.116137 53 55 28
-0.090529 0.072492 0.118026 65 63 42
-0.087744 0.072492 0.118026 25 18 17
-0.084958 0.072492 0.116137 133 125 116
-0.082173 0.072492 0.112361 158 154 144
-0.079387 0.072492 0.108584 147 144 140
-0.076602 0.072492 0.104807 47 38 22
-0.073816 0.072492 0.102918 114 105 90
-0.071031 0.072492 0.103863 188 184 174
-0.068245 0.072492 0.109528 129 121 114
-0.065460 0.072492 0.113305 208 209 209
-0.062674 0.072492 0.115193 83 86 65
-0.059889 0.072492 0.114249 55 52 35
-0.057103 0.072492 0.117082 41 44 23
-0.054318 0.072492 0.123691 41 40 31
-0.051532 0.072492 0.130300 110 106 96
-0.048747 0.072492 0.134077 105 106 87
-0.045961 0.072492 0.135021 82 82 56
-0.043175 0.072492 0.133133 84 81 45
-0.040390 0.072492 0.128412 84 75 47
-0.037604 0.072492 0.118970 32 21 19
-0.034819 0.072492 0.105751 61 59 41
-0.032033 0.072492 0.089700 91 91 54
-0.029248 0.072492 0.076481 93 79 62
-0.026462 0.072492 0.068927 94 81 66
-0.023677 0.072492 0.066094 109 96 82
-0.020891 0.072492 0.065150 115 103 84
-0.018106 0.072492 0.064206 109 96 85
-0.015320 0.072492 0.064206 94 85 77
-0.012535 0.072492 0.067039 114 104 95
-0.009749 0.072492 0.076481 97 82 75
-0.006964 0.072492 0.090644 94 86 71
-0.004178 0.072492 0.109528 159 143 130
-0.001393 0.072492 0.134077 134 120 108
0.001393 0.072492 0.163348 108 96 61
0.004178 0.072492 0.194506 144 127 91
0.006964 0.072492 0.216223 209 197 171
0.009749 0.072492 0.220000 197 185 161
0.012535 0.072492 0.202060 188 177 156
0.015320 0.072492 0.167124 159 147 128
0.018106 0.072492 0.123691 106 91 76
0.020891 0.072492 0.085923 113 104 88
0.023677 0.072492 0.063262 111 101 83
0.026462 0.072492 0.055708 62 50 39
0.029248 0.072492 0.058541 34 30 27
0.032033 0.072492 0.064206 36 32 29
0.034819 0.072492 0.074592 33 28 27
0.037604 0.072492 0.088755 75 70 69
0.040390 0.072492 0.107639 64 56 51
0.043175 0.072492 0.130300 171 171 168
0.045961 0.072492 0.148240 238 239 240
0.048747 0.072492 0.155794 181 179 183
0.051532 0.072492 0.153906 146 148 129
0.054318 0.072492 0.142575 70 68 45
0.057103 0.072492 0.128412 101 91 68
0.059889 0.072492 0.115193 111 106 75
0.062674 0.072492 0.109528 96 84 71
0.065460 0.072492 0.104807 180 175 173
0.068245 0.072492 0.098197 174 170 167
0.071031 0.072492 0.082146 73 58 48
0.073816 0.072492 0.062318 82 69 61
0.076602 0.072492 0.045322 68 62 50
0.079387 0.072492 0.039657 94 82 74
0.082173 0.072492 0.046266 34 30 27
0.084958 0.072492 0.065150 35 34 30
0.087744 0.072492 0.093476 35 33 30
0.090529 0.072492 0.120858 105 108 107
0.093315 0.072492 0.137854 222 221 221
0.096100 0.072492 0.138798 54 44 39
0.098886 0.072492 0.128412 102 104 89
0.101671 0.072492 0.115193 97 88 73
0.104457 0.072492 0.103863 61 54 42
0.107242 0.072492 0.095365 113 106 82
0.110028 0.072492 0.084979 130 119 90
0.112813 0.072492 0.074592 140 132 125
0.115599 0.072492 0.066094 132 122 108
0.118384 0.072492 0.064206 115 101 90
0.121170 0.072492 0.067039 84 66 56
0.123955 0.072492 0.072704 195 189 189
0.126741 0.072492 0.075536 150 134 118
0.129526 0.072492 0.076481 65 54 39
0.132312 0.072492 0.081202 32 25 24
0.135098 0.072492 0.090644 33 33 23
0.137883 0.072492 0.105751 112 119 96
0.140669 0.072492 0.119914 106 104 99
0.143454 0.072492 0.134077 43 38 31
0.146240 0.072492 0.144464 19 18 16
0.149025 0.072492 0.150129 28 30 13
0.151811 0.072492 0.149185 52 55 34
0.154596 0.072492 0.146352 64 64 41
0.157382 0.072492 0.145408 88 84 67
0.160167 0.072492 0.143519 110 102 94
0.162953 0.072492 0.138798 152 146 143
0.165738 0.072492 0.128412 145 128 122
0.168524 0.072492 0.113305 64 45 35
0.171309 0.072492 0.098197 62 46 40
0.174095 0.072492 0.091588 69 55 50
0.176880 0.072492 0.100086 83 77 59
0.179666 0.072492 0.118970 105 112 76
0.182451 0.072492 0.139742 80 80 37
0.185237 0.072492 0.154850 148 144 136
0.188022 0.072492 0.164292 192 185 184
0.190808 0.072492 0.165236 63 54 41
0.193593 0.072492 0.163348 44 39 34
0.196379 0.072492 0.157682 154 153 150
0.199164 0.072492 0.146352 96 85 78
0.201950 0.072492 0.134077 85 70 53
0.204735 0.072492 0.119914 104 92 69
0.207521 0.072492 0.107639 115 100 81
0.210306 0.072492 0.094421 94 84 69
0.213092 0.072492 0.079313 111 98 89
0.215877 0.072492 0.063262 120 112 110
0.218663 0.072492 0.050043 113 106 95
0.221448 0.072492 0.037768 83 76 65
0.224234 0.072492 0.030215 50 44 42
0.227019 0.072492 0.025494 62 55 49
0.229805 0.072492 0.024549 26 21 19
0.232591 0.072492 0.026438 44 41 35
0.235376 0.072492 0.034936 39 35 29
0.238162 0.072492 0.050043 60 57 54
0.240947 0.072492 0.067983 106 106 105
0.243733 0.072492 0.084034 101 98 96
0.246518 0.072492 0.098197 41 38 33
0.249304 0.072492 0.107639 35 35 26
0.252089 0.072492 0.115193 56 56 37
0.254875 0.072492 0.119914 77 66 54
0.257660 0.072492 0.120858 159 158 156
0.260446 0.072492 0.113305 169 167 166
0.263231 0.072492 0.097253 111 108 98
0.266017 0.072492 0.076481 127 117 98
0.268802 0.072492 0.059485 125 111 95
0.271588 0.072492 0.048155 111 104 97
0.274373 0.072492 0.043433 105 96 85
0.277159 0.072492 0.044378 56 51 47
0.279944 0.072492 0.049099 49 46 43
0.282730 0.072492 0.056652 107 103 92
0.285515 0.072492 0.069871 118 115 109
0.288301 0.072492 0.087811 129 118 107
0.291086 0.072492 0.111416 72 63 54
0.293872 0.072492 0.135021 61 57 48
0.296657 0.072492 0.151073 73 76 60
0.299443 0.072492 0.155794 214 215 212
0.302228 0.072492 0.152961 158 150 145
0.305014 0.072492 0.149185 125 115 100
0.307799 0.072492 0.147296 102 94 83
0.310585 0.072492 0.146352 172 162 136
0.313370 0.072492 0.137854 217 213 208
0.316156 0.072492 0.117082 131 125 127
0.318942 0.072492 0.089700 62 54 47
0.321727 0.072492 0.061373 115 105 95
0.324513 0.072492 0.043433 108 100 93
0.327298 0.072492 0.035880 100 91 86
0.330084 0.072492 0.039657 87 73 68
0.332869 0.072492 0.051931 52 42 38
0.335655 0.072492 0.070815 47 43 39
0.338440 0.072492 0.092532 66 60 49
0.341226 0.072492 0.108584 57 54 37
0.344011 0.072492 0.117082 115 119 110
0.346797 0.072492 0.117082 104 95 92
0.349582 0.072492 0.114249 127 118 105
0.352368 0.072492 0.112361 176 173 167
0.355153 0.072492 0.111416 117 104 88
0.357939 0.072492 0.113305 98 90 68
0.360724 0.072492 0.114249 80 77 49
0.363510 0.072492 0.113305 107 106 84
0.366295 0.072492 0.107639 165 170 150
0.369081 0.072492 0.099142 118 112 108
0.371866 0.072492 0.088755 161 158 156
0.374652 0.072492 0.078369 90 79 78
0.377437 0.072492 0.067983 49 45 39
0.380223 0.072492 0.062318 52 46 37
0.383008 0.072492 0.061373 34 28 23
0.385794 0.072492 0.065150 60 57 52
0.388579 0.072492 0.068927 120 116 117
0.391365 0.072492 0.070815 85 69 61
0.394150 0.072492 0.075536 139 123 107
0.396936 0.072492 0.083090 100 95 85
0.399721 0.072492 0.091588 106 98 93
0.402507 0.072492 0.098197 132 129 119
0.405292 0.072492 0.096309 161 159 157
0.408078 0.072492 0.086867 166 162 160
0.410864 0.072492 0.073648 96 86 81
0.413649 0.072492 0.064206 49 43 33
0.416435 0.072492 0.061373 85 76 63
0.419220 0.072492 0.065150 32 26 22
0.422006 0.072492 0.073648 62 54 44
0.424791 0.072492 0.083090 67 66 53
0.427577 0.072492 0.095365 62 56 42
0.430362 0.072492 0.109528 88 86 66
0.433148 0.072492 0.119914 141 138 122
0.435933 0.072492 0.123691 129 120 109
0.438719 0.072492 0.119914 123 117 109
0.441504 0.072492 0.110472 106 106 83
0.444290 0.072492 0.100086 105 93 76
0.447075 0.072492 0.088755 67 59 43
0.449861 0.072492 0.080258 30 30 19
0.452646 0.072492 0.073648 110 105 99
0.455432 0.072492 0.068927 107 94 92
0.458217 0.072492 0.069871 79 73 67
0.461003 0.072492 0.076481 111 103 87
0.463788 0.072492 0.090644 46 44 40
0.466574 0.072492 0.112361 48 45 32
0.469359 0.072492 0.135966 70 66 57
0.472145 0.072492 0.153906 195 197 198
0.474930 0.072492 0.158627 183 183 185
0.477716 0.072492 0.149185 80 74 69
0.480501 0.072492 0.132189 107 98 90
0.483287 0.072492 0.117082 84 80 78
0.486072 0.072492 0.107639 72 67 65
0.488858 0.072492 0.101974 132 128 124
0.491643 0.072492 0.094421 120 112 104
0.494429 0.072492 0.087811 50 46 44
0.497214 0.072492 0.084034 157 152 149
0.500000 0.072492 0.083090 112 97 91
-0.500000 0.069704 0.116137 54 47 35
-0.497214 0.069704 0.109528 123 121 110
-0.494429 0.069704 0.094421 120 120 120
-0.491643 0.069704 0.079313 127 123 122
-0.488858 0.069704 0.067039 94 86 82
-0.486072 0.069704 0.060429 48 41 39
-0.483287 0.069704 0.061373 54 46 41
-0.480501 0.069704 0.067039 94 87 77
-0.477716 0.069704 0.076481 57 54 38
-0.474930 0.069704 0.088755 43 42 24
-0.472145 0.069704 0.099142 140 137 118
-0.469359 0.069704 0.101974 183 183 184
-0.466574 0.069704 0.096309 185 185 183
-0.463788 0.069704 0.084034 109 99 88
-0.461003 0.069704 0.072704 119 107 101
-0.458217 0.069704 0.064206 135 131 132
-0.455432 0.069704 0.064206 155 148 148
-0.452646 0.069704 0.067983 131 127 128
-0.449861 0.069704 0.076481 88 78 76
-0.447075 0.069704 0.086867 72 62 58
-0.444290 0.069704 0.098197 101 86 77
-0.441504 0.069704 0.102918 182 178 172
-0.438719 0.069704 0.095365 125 123 119
-0.435933 0.069704 0.081202 43 37 28
-0.433148 0.069704 0.068927 72 67 49
-0.430362 0.069704 0.063262 51 50 40
-0.427577 0.069704 0.062318 28 20 15
-0.424791 0.069704 0.060429 76 70 58
-0.422006 0.069704 0.057597 65 64 50
-0.419220 0.069704 0.054764 75 70 58
-0.416435 0.069704 0.056652 108 104 91
-0.413649 0.069704 0.065150 130 121 117
-0.410864 0.069704 0.077425 120 114 110
-0.408078 0.069704 0.087811 86 82 76
-0.405292 0.069704 0.092532 165 162 156
-0.402507 0.069704 0.090644 163 165 164
-0.399721 0.069704 0.085923 58 53 51
-0.396936 0.069704 0.083090 40 32 29
-0.394150 0.069704 0.083090 98 92 88
-0.391365 0.069704 0.087811 102 103 89
-0.388579 0.069704 0.096309 81 75 63
-0.385794 0.069704 0.104807 146 143 131
-0.383008 0.069704 0.108584 171 171 170
-0.380223 0.069704 0.105751 118 113 105
-0.377437 0.069704 0.097253 93 85 78
-0.374652 0.069704 0.086867 87 72 67
-0.371866 0.069704 0.073648 95 88 75
-0.369081 0.069704 0.062318 114 109 89
-0.366295 0.069704 0.052876 117 94 80
-0.363510 0.069704 0.048155 110 85 75
-0.360724 0.069704 0.050987 88 70 62
-0.357939 0.069704 0.056652 91 75 64
-0.355153 0.069704 0.061373 152 139 132
-0.352368 0.069704 0.060429 121 120 114
-0.349582 0.069704 0.056652 54 47 37
-0.346797 0.069704 0.053820 74 68 56
-0.344011 0.069704 0.055708 78 73 64
-0.341226 0.069704 0.061373 74 58 49
-0.338440 0.069704 0.069871 137 123 115
-0.335655 0.069704 0.076481 120 114 105
-0.332869 0.069704 0.079313 63 54 45
-0.330084 0.069704 0.080258 62 58 53
-0.327298 0.069704 0.078369 76 71 64
-0.324513 0.069704 0.081202 90 81 69
-0.321727 0.069704 0.086867 105 91 69
-0.318942 0.069704 0.095365 107 91 68
-0.316156 0.069704 0.102918 104 83 71
-0.313370 0.069704 0.109528 107 91 71
-0.310585 0.069704 0.117082 136 130 93
-0.307799 0.069704 0.127468 137 127 115
-0.305014 0.069704 0.137854 125 121 112
-0.302228 0.069704 0.146352 186 185 184
-0.299443 0.069704 0.146352 165 163 165
-0.296657 0.069704 0.139742 157 157 158
-0.293872 0.069704 0.129356 29 26 23
-0.291086 0.069704 0.118026 69 65 56
-0.288301 0.069704 0.110472 106 93 82
-0.285515 0.069704 0.108584 104 86 73
-0.282730 0.069704 0.107639 155 139 112
-0.279944 0.069704 0.103863 176 162 138
-0.277159 0.069704 0.094421 150 136 121
-0.274373 0.069704 0.083090 82 70 65
-0.271588 0.069704 0.077425 81 75 59
-0.268802 0.069704 0.080258 85 81 65
-0.266017 0.069704 0.085923 132 122 102
-0.263231 0.069704 0.090644 133 121 103
-0.260446 0.069704 0.092532 70 66 51
-0.257660 0.069704 0.092532 93 92 82
-0.254875 0.069704 0.093476 56 47 43
-0.252089 0.069704 0.094421 28 19 18
-0.249304 0.069704 0.095365 55 48 36
-0.246518 0.069704 0.098197 52 51 36
-0.243733 0.069704 0.101030 45 36 24
-0.240947 0.069704 0.107639 161 151 148
-0.238162 0.069704 0.112361 120 118 111
-0.235376 0.069704 0.112361 79 77 48
-0.232591 0.069704 0.107639 120 122 85
-0.229805 0.069704 0.096309 110 89 66
-0.227019 0.069704 0.085923 106 79 65
-0.224234 0.069704 0.080258 94 84 61
-0.221448 0.069704 0.084979 111 109 97
-0.218663 0.069704 0.096309 176 172 172
-0.215877 0.069704 0.106695 89 86 82
-0.213092 0.069704 0.114249 144 141 140
-0.210306 0.069704 0.121803 123 122 96
-0.207521 0.069704 0.132189 104 88 60
-0.204735 0.069704 0.143519 176 165 162
-0.201950 0.069704 0.148240 134 135 130
-0.199164 0.069704 0.145408 37 40 10
-0.196379 0.069704 0.135021 169 168 146
-0.193593 0.069704 0.122747 96 94 87
-0.190808 0.069704 0.109528 95 92 69
-0.188022 0.069704 0.097253 124 120 106
-0.185237 0.069704 0.083090 164 160 151
-0.182451 0.069704 0.069871 99 92 80
-0.179666 0.069704 0.062318 81 70 60
-0.176880 0.069704 0.064206 101 90 82
-0.174095 0.069704 0.072704 182 183 181
-0.171309 0.069704 0.081202 58 52 42
-0.168524 0.069704 0.087811 136 123 105
-0.165738 0.069704 0.093476 87 84 82
-0.162953 0.069704 0.101030 96 92 91
-0.160167 0.069704 0.110472 239 239 238
-0.157382 0.069704 0.118970 99 96 91
-0.154596 0.069704 0.122747 144 140 130
-0.151811 0.069704 0.122747 173 174 171
-0.149025 0.069704 0.117082 69 67 47
-0.146240 0.069704 0.109528 107 106 96
-0.143454 0.069704 0.103863 127 124 115
-0.140669 0.069704 0.098197 83 75 64
-0.137883 0.069704 0.090644 124 116 110
-0.135098 0.069704 0.077425 52 50 46
-0.132312 0.069704 0.062318 67 59 57
-0.129526 0.069704 0.047210 102 85 79
-0.126741 0.069704 0.035880 112 92 80
-0.123955 0.069704 0.029270 119 96 82
-0.121170 0.069704 0.029270 127 110 96
-0.118384 0.069704 0.035880 98 82 67
-0.115599 0.069704 0.048155 85 70 59
-0.112813 0.069704 0.063262 69 61 59
-0.110028 0.069704 0.080258 92 87 83
-0.107242 0.069704 0.094421 145 141 139
-0.104457 0.069704 0.103863 116 111 107
-0.101671 0.069704 0.110472 16 11 5
-0.098886 0.069704 0.114249 123 123 119
-0.096100 0.069704 0.119914 43 42 38
-0.093315 0.069704 0.127468 50 50 32
-0.090529 0.069704 0.133133 74 76 47
-0.087744 0.069704 0.133133 35 25 19
-0.084958 0.069704 0.126524 136 126 117
-0.082173 0.069704 0.117082 115 114 111
-0.079387 0.069704 0.106695 9 3 1
-0.076602 0.069704 0.100086 41 30 27
-0.073816 0.069704 0.097253 65 57 51
-0.071031 0.069704 0.099142 93 78 66
-0.068245 0.069704 0.106695 76 67 55
-0.065460 0.069704 0.114249 113 107 102
-0.062674 0.069704 0.118970 62 59 45
-0.059889 0.069704 0.121803 31 28 18
-0.057103 0.069704 0.124635 88 80 55
-0.054318 0.069704 0.128412 62 60 39
-0.051532 0.069704 0.132189 78 72 55
-0.048747 0.069704 0.135021 93 88 54
-0.045961 0.069704 0.138798 85 81 58
-0.043175 0.069704 0.139742 44 41 30
-0.040390 0.069704 0.136910 151 148 144
-0.037604 0.069704 0.127468 81 81 66
-0.034819 0.069704 0.113305 77 79 43
-0.032033 0.069704 0.096309 103 99 82
-0.029248 0.069704 0.084034 122 120 91
-0.026462 0.069704 0.076481 104 97 69
-0.023677 0.069704 0.074592 99 89 75
-0.020891 0.069704 0.073648 112 103 88
-0.018106 0.069704 0.073648 124 115 98
-0.015320 0.069704 0.073648 108 99 86
-0.012535 0.069704 0.077425 115 108 100
-0.009749 0.069704 0.085923 90 79 67
-0.006964 0.069704 0.099142 67 63 40
-0.004178 0.069704 0.115193 91 87 66
-0.001393 0.069704 0.137854 113 112 69
0.001393 0.069704 0.165236 114 104 49
0.004178 0.069704 0.195451 132 110 82
0.006964 0.069704 0.217167 208 195 165
0.009749 0.069704 0.220000 212 197 173
0.012535 0.069704 0.203004 196 183 162
0.015320 0.069704 0.167124 167 157 138
0.018106 0.069704 0.123691 130 119 102
0.020891 0.069704 0.084034 116 101 85
0.023677 0.069704 0.060429 117 93 77
0.026462 0.069704 0.052876 87 68 56
0.029248 0.069704 0.055708 91 77 64
0.032033 0.069704 0.065150 83 73 65
0.034819 0.069704 0.076481 29 27 23
0.037604 0.069704 0.091588 11 9 7
0.040390 0.069704 0.109528 51 40 39
0.043175 0.069704 0.129356 140 134 129
0.045961 0.069704 0.143519 132 129 128
0.048747 0.069704 0.146352 102 98 89
0.051532 0.069704 0.142575 60 62 37
0.054318 0.069704 0.130300 76 71 56
0.057103 0.069704 0.117082 132 125 111
0.059889 0.069704 0.107639 73 71 48
0.062674 0.069704 0.101030 79 71 54
0.065460 0.069704 0.094421 122 117 113
0.068245 0.069704 0.084979 175 166 158
0.071031 0.069704 0.067983 125 99 84
0.073816 0.069704 0.050987 95 76 60
0.076602 0.069704 0.037768 41 29 22
0.079387 0.069704 0.033991 72 56 48
0.082173 0.069704 0.041545 40 34 30
0.084958 0.069704 0.059485 33 32 30
0.087744 0.069704 0.086867 31 26 24
0.090529 0.069704 0.114249 70 66 63
0.093315 0.069704 0.131245 195 195 193
0.096100 0.069704 0.134077 117 112 96
0.098886 0.069704 0.124635 57 59 30
0.101671 0.069704 0.113305 51 49 34
0.104457 0.069704 0.103863 52 49 36
0.107242 0.069704 0.097253 122 107 84
0.110028 0.069704 0.089700 72 63 45
0.112813 0.069704 0.081202 60 58 55
0.115599 0.069704 0.074592 71 60 51
0.118384 0.069704 0.072704 104 93 83
0.121170 0.069704 0.073648 101 91 85
0.123955 0.069704 0.075536 116 105 99
0.126741 0.069704 0.074592 66 59 49
0.129526 0.069704 0.076481 49 41 31
0.132312 0.069704 0.083090 34 29 25
0.135098 0.069704 0.096309 43 42 21
0.137883 0.069704 0.112361 111 113 76
0.140669 0.069704 0.127468 114 109 105
0.143454 0.069704 0.140687 100 99 98
0.146240 0.069704 0.152961 61 60 59
0.149025 0.069704 0.162403 21 25 8
0.151811 0.069704 0.164292 42 42 19
0.154596 0.069704 0.159571 71 76 58
0.157382 0.069704 0.151073 182 184 176
0.160167 0.069704 0.139742 104 89 80
0.162953 0.069704 0.128412 129 120 115
0.165738 0.069704 0.118026 127 109 104
0.168524 0.069704 0.107639 113 99 91
0.171309 0.069704 0.099142 99 92 78
0.174095 0.069704 0.096309 86 75 64
0.176880 0.069704 0.102918 118 111 109
0.179666 0.069704 0.115193 98 97 89
0.182451 0.069704 0.127468 50 41 34
0.185237 0.069704 0.135966 36 26 25
0.188022 0.069704 0.139742 87 84 79
0.190808 0.069704 0.141631 34 22 18
0.193593 0.069704 0.146352 99 97 96
0.196379 0.069704 0.149185 219 220 221
0.199164 0.069704 0.148240 160 154 151
0.201950 0.069704 0.142575 83 81 58
0.204735 0.069704 0.133133 79 76 49
0.207521 0.069704 0.121803 117 112 104
0.210306 0.069704 0.107639 158 153 151
0.213092 0.069704 0.090644 126 115 107
0.215877 0.069704 0.071760 114 110 109
0.218663 0.069704 0.056652 116 106 96
0.221448 0.069704 0.043433 72 62 53
0.224234 0.069704 0.034936 75 66 62
0.227019 0.069704 0.028326 31 27 25
0.229805 0.069704 0.026438 31 25 22
0.232591 0.069704 0.027382 58 52 50
0.235376 0.069704 0.033991 56 55 55
0.238162 0.069704 0.045322 106 103 101
0.240947 0.069704 0.059485 39 32 29
0.243733 0.069704 0.073648 12 11 8
0.246518 0.069704 0.087811 34 32 21
0.249304 0.069704 0.099142 55 54 34
0.252089 0.069704 0.107639 52 50 32
0.254875 0.069704 0.114249 83 78 66
0.257660 0.069704 0.115193 96 91 89
0.260446 0.069704 0.106695 95 90 85
0.263231 0.069704 0.091588 96 85 65
0.266017 0.069704 0.070815 123 105 80
0.268802 0.069704 0.053820 100 87 77
0.271588 0.069704 0.043433 111 103 95
0.274373 0.069704 0.039657 121 111 100
0.277159 0.069704 0.043433 79 71 65
0.279944 0.069704 0.050043 61 49 45
0.282730 0.069704 0.059485 62 57 52
0.285515 0.069704 0.073648 79 75 71
0.288301 0.069704 0.093476 111 104 98
0.291086 0.069704 0.118026 123 117 113
0.293872 0.069704 0.139742 196 199 198
0.296657 0.069704 0.152017 162 160 149
0.299443 0.069704 0.153906 93 94 78
0.302228 0.069704 0.151073 113 114 100
0.305014 0.069704 0.150129 112 112 100
0.307799 0.069704 0.152017 128 122 113
0.310585 0.069704 0.154850 136 130 106
0.313370 0.069704 0.147296 169 155 132
0.316156 0.069704 0.127468 117 99 82
0.318942 0.069704 0.097253 90 75 65
0.321727 0.069704 0.067983 106 94 82
0.324513 0.069704 0.049099 104 90 84
0.327298 0.069704 0.040601 85 75 69
0.330084 0.069704 0.042489 92 80 73
0.332869 0.069704 0.050987 31 26 23
0.335655 0.069704 0.067039 28 26 22
0.338440 0.069704 0.086867 34 38 24
0.341226 0.069704 0.104807 61 61 42
0.344011 0.069704 0.117082 46 46 19
0.346797 0.069704 0.118970 108 108 98
0.349582 0.069704 0.115193 136 129 127
0.352368 0.069704 0.107639 137 127 120
0.355153 0.069704 0.101030 111 95 83
0.357939 0.069704 0.097253 98 85 72
0.360724 0.069704 0.098197 108 96 83
0.363510 0.069704 0.100086 94 80 63
0.366295 0.069704 0.100086 133 128 113
0.369081 0.069704 0.095365 92 87 78
0.371866 0.069704 0.087811 70 69 56
0.374652 0.069704 0.078369 67 61 54
0.377437 0.069704 0.067983 46 37 33
0.380223 0.069704 0.062318 60 53 44
0.383008 0.069704 0.062318 74 60 48
0.385794 0.069704 0.066094 83 77 67
0.388579 0.069704 0.070815 101 92 86
0.391365 0.069704 0.075536 52 43 31
0.394150 0.069704 0.081202 103 102 97
0.396936 0.069704 0.088755 137 137 133
0.399721 0.069704 0.094421 90 81 64
0.402507 0.069704 0.099142 112 106 97
0.405292 0.069704 0.096309 141 139 136
0.408078 0.069704 0.086867 123 120 116
0.410864 0.069704 0.073648 98 88 81
0.413649 0.069704 0.063262 121 109 104
0.416435 0.069704 0.057597 64 55 50
0.419220 0.069704 0.060429 44 40 38
0.422006 0.069704 0.067039 57 46 42
0.424791 0.069704 0.076481 110 105 104
0.427577 0.069704 0.089700 79 72 58
0.430362 0.069704 0.106695 104 101 84
0.433148 0.069704 0.119914 177 181 189
0.435933 0.069704 0.127468 158 155 155
0.438719 0.069704 0.123691 116 110 95
0.441504 0.069704 0.114249 102 97 92
0.444290 0.069704 0.101030 159 156 152
0.447075 0.069704 0.088755 87 85 70
0.449861 0.069704 0.077425 140 136 129
0.452646 0.069704 0.069871 109 97 84
0.455432 0.069704 0.065150 62 54 45
0.458217 0.069704 0.066094 34 28 27
0.461003 0.069704 0.072704 68 60 53
0.463788 0.069704 0.087811 24 21 17
0.466574 0.069704 0.106695 121 123 123
0.469359 0.069704 0.129356 142 133 123
0.472145 0.069704 0.148240 109 98 84
0.474930 0.069704 0.155794 47 49 33
0.477716 0.069704 0.151073 96 102 89
0.480501 0.069704 0.136910 138 129 124
0.483287 0.069704 0.122747 81 70 63
0.486072 0.069704 0.114249 42 39 36
0.488858 0.069704 0.108584 136 139 142
0.491643 0.069704 0.102918 218 219 222
0.494429 0.069704 0.096309 97 88 84
0.497214 0.069704 0.090644 118 120 122
0.500000 0.069704 0.089700 148 136 138
-0.500000 0.066915 0.101974 113 97 89
-0.497214 0.066915 0.096309 119 110 104
-0.494429 0.066915 0.085923 61 48 45
-0.491643 0.066915 0.077425 73 61 59
-0.488858 0.066915 0.070815 99 89 86
-0.486072 0.066915 0.069871 48 47 46
-0.483287 0.066915 0.072704 35 28 25
-0.480501 0.066915 0.077425 116 103 88
-0.477716 0.066915 0.083090 99 101 85
-0.474930 0.066915 0.089700 59 55 39
-0.472145 0.066915 0.094421 83 77 60
-0.469359 0.066915 0.093476 69 59 49
-0.466574 0.066915 0.084979 125 116 115
-0.463788 0.066915 0.073648 114 110 102
-0.461003 0.066915 0.063262 90 82 71
-0.458217 0.066915 0.060429 82 70 69
-0.455432 0.066915 0.066094 98 89 87
-0.452646 0.066915 0.075536 106 101 95
-0.449861 0.066915 0.084034 61 49 45
-0.447075 0.066915 0.092532 100 84 71
-0.444290 0.066915 0.099142 133 126 121
-0.441504 0.066915 0.100086 135 138 138
-0.438719 0.066915 0.091588 40 40 36
-0.435933 0.066915 0.077425 37 34 23
-0.433148 0.066915 0.066094 44 39 32
-0.430362 0.066915 0.060429 15 11 9
-0.427577 0.066915 0.059485 98 86 82
-0.424791 0.066915 0.055708 174 163 158
-0.422006 0.066915 0.049099 120 109 104
-0.419220 0.066915 0.043433 90 80 67
-0.416435 0.066915 0.046266 107 97 84
-0.413649 0.066915 0.057597 94 80 72
-0.410864 0.066915 0.074592 140 130 124
-0.408078 0.066915 0.090644 163 158 154
-0.405292 0.066915 0.099142 143 138 138
-0.402507 0.066915 0.101030 84 82 74
-0.399721 0.066915 0.096309 115 114 103
-0.396936 0.066915 0.090644 78 67 63
-0.394150 0.066915 0.087811 147 136 133
-0.391365 0.066915 0.085923 85 84 83
-0.388579 0.066915 0.087811 53 42 37
-0.385794 0.066915 0.091588 83 76 74
-0.383008 0.066915 0.092532 143 139 138
-0.380223 0.066915 0.088755 110 109 100
-0.377437 0.066915 0.082146 99 90 75
-0.374652 0.066915 0.074592 58 49 40
-0.371866 0.066915 0.067039 152 146 141
-0.369081 0.066915 0.058541 148 144 135
-0.366295 0.066915 0.050043 91 74 49
-0.363510 0.066915 0.045322 94 80 60
-0.360724 0.066915 0.046266 120 106 84
-0.357939 0.066915 0.050043 107 93 80
-0.355153 0.066915 0.054764 82 75 75
-0.352368 0.066915 0.056652 102 94 89
-0.349582 0.066915 0.054764 62 53 43
-0.346797 0.066915 0.054764 82 73 68
-0.344011 0.066915 0.057597 23 20 19
-0.341226 0.066915 0.062318 59 53 46
-0.338440 0.066915 0.067039 113 94 82
-0.335655 0.066915 0.072704 103 88 73
-0.332869 0.066915 0.075536 135 116 103
-0.330084 0.066915 0.079313 130 118 104
-0.327298 0.066915 0.082146 91 84 73
-0.324513 0.066915 0.087811 79 69 59
-0.321727 0.066915 0.094421 139 132 126
-0.318942 0.066915 0.099142 150 136 128
-0.316156 0.066915 0.101974 148 130 121
-0.313370 0.066915 0.105751 102 94 81
-0.310585 0.066915 0.112361 98 89 76
-0.307799 0.066915 0.123691 180 174 173
-0.305014 0.066915 0.135021 178 175 173
-0.302228 0.066915 0.142575 130 124 120
-0.299443 0.066915 0.145408 124 121 107
-0.296657 0.066915 0.142575 94 91 83
-0.293872 0.066915 0.135966 80 74 69
-0.291086 0.066915 0.126524 207 205 204
-0.288301 0.066915 0.117082 94 79 68
-0.285515 0.066915 0.111416 123 103 92
-0.282730 0.066915 0.107639 175 163 140
-0.279944 0.066915 0.101974 175 162 136
-0.277159 0.066915 0.091588 139 126 112
-0.274373 0.066915 0.080258 89 79 72
-0.271588 0.066915 0.075536 94 84 69
-0.268802 0.066915 0.077425 140 132 115
-0.266017 0.066915 0.084034 70 66 61
-0.263231 0.066915 0.087811 37 28 25
-0.260446 0.066915 0.088755 41 33 27
-0.257660 0.066915 0.088755 31 28 27
-0.254875 0.066915 0.090644 71 63 47
-0.252089 0.066915 0.092532 74 72 50
-0.249304 0.066915 0.094421 44 39 30
-0.246518 0.066915 0.096309 55 51 32
-0.243733 0.066915 0.096309 96 85 56
-0.240947 0.066915 0.100086 104 85 71
-0.238162 0.066915 0.103863 72 60 50
-0.235376 0.066915 0.106695 99 94 66
-0.232591 0.066915 0.103863 110 100 80
-0.229805 0.066915 0.096309 114 92 74
-0.227019 0.066915 0.088755 113 95 81
-0.224234 0.066915 0.086867 100 81 70
-0.221448 0.066915 0.094421 76 69 53
-0.218663 0.066915 0.106695 114 117 101
-0.215877 0.066915 0.116137 135 132 129
-0.213092 0.066915 0.120858 166 164 162
-0.210306 0.066915 0.121803 117 112 97
-0.207521 0.066915 0.124635 106 100 64
-0.204735 0.066915 0.130300 120 107 89
-0.201950 0.066915 0.134077 136 133 125
-0.199164 0.066915 0.133133 77 79 69
-0.196379 0.066915 0.126524 72 66 60
-0.193593 0.066915 0.117082 124 119 102
-0.190808 0.066915 0.104807 120 122 83
-0.188022 0.066915 0.091588 120 113 94
-0.185237 0.066915 0.076481 110 107 88
-0.182451 0.066915 0.063262 88 77 63
-0.179666 0.066915 0.055708 79 64 55
-0.176880 0.066915 0.057597 100 89 80
-0.174095 0.066915 0.066094 138 125 120
-0.171309 0.066915 0.075536 81 72 56
-0.168524 0.066915 0.082146 196 192 182
-0.165738 0.066915 0.087811 109 105 104
-0.162953 0.066915 0.095365 94 88 83
-0.160167 0.066915 0.105751 128 120 117
-0.157382 0.066915 0.115193 131 123 118
-0.154596 0.066915 0.119914 155 155 152
-0.151811 0.066915 0.118970 79 74 57
-0.149025 0.066915 0.113305 97 89 73
-0.146240 0.066915 0.104807 157 156 151
-0.143454 0.066915 0.099142 129 133 130
-0.140669 0.066915 0.092532 108 108 107
-0.137883 0.066915 0.084034 115 108 102
-0.135098 0.066915 0.071760 73 68 56
-0.132312 0.066915 0.056652 88 91 65
-0.129526 0.066915 0.043433 109 106 79
-0.126741 0.066915 0.033991 134 119 103
-0.123955 0.066915 0.030215 108 84 74
-0.121170 0.066915 0.033047 119 104 88
-0.118384 0.066915 0.041545 124 101 86
-0.115599 0.066915 0.056652 112 94 80
