ply
format ascii 1.0
element vertex 1236
property float x
property float y
property float z
property uchar red
property uchar green
property uchar blue
end_header
0.418919 -0.021263 0.090644 13 8 8
0.422780 -0.021263 0.099142 51 46 39
0.426641 -0.021263 0.102918 99 91 81
0.430502 -0.021263 0.101030 123 113 94
0.434363 -0.021263 0.092532 103 89 68
0.438224 -0.021263 0.083090 108 92 75
0.442085 -0.021263 0.076481 128 119 108
0.445946 -0.021263 0.077425 112 108 100
0.449807 -0.021263 0.083090 87 80 66
0.453668 -0.021263 0.090644 31 34 19
0.457529 -0.021263 0.097253 84 85 83
0.461390 -0.021263 0.101974 114 106 102
0.465251 -0.021263 0.103863 48 46 29
0.469112 -0.021263 0.103863 53 53 34
0.472973 -0.021263 0.099142 70 70 49
0.476834 -0.021263 0.093476 106 101 79
0.480695 -0.021263 0.087811 89 80 73
0.484556 -0.021263 0.081202 97 93 86
0.488417 -0.021263 0.073648 68 63 57
0.492278 -0.021263 0.063262 57 50 43
0.496139 -0.021263 0.053820 92 84 73
0.500000 -0.021263 0.047210 68 61 57
-0.500000 -0.025130 0.085923 115 99 87
-0.496139 -0.025130 0.087811 79 77 65
-0.492278 -0.025130 0.090644 34 32 25
-0.488417 -0.025130 0.093476 26 23 19
-0.484556 -0.025130 0.093476 18 15 10
-0.480695 -0.025130 0.087811 98 88 81
-0.476834 -0.025130 0.078369 127 113 96
-0.472973 -0.025130 0.070815 104 89 76
-0.469112 -0.025130 0.062318 101 84 75
-0.465251 -0.025130 0.056652 65 56 53
-0.461390 -0.025130 0.053820 74 69 68
-0.457529 -0.025130 0.051931 73 67 61
-0.453668 -0.025130 0.050987 60 56 43
-0.449807 -0.025130 0.051931 104 96 93
-0.445946 -0.025130 0.051931 98 94 90
-0.442085 -0.025130 0.049099 68 63 64
-0.438224 -0.025130 0.042489 74 65 62
-0.434363 -0.025130 0.033047 110 91 79
-0.430502 -0.025130 0.023605 81 68 58
-0.426641 -0.025130 0.018884 94 86 84
-0.422780 -0.025130 0.018884 93 86 81
-0.418919 -0.025130 0.027382 110 97 92
-0.415058 -0.025130 0.041545 110 102 101
-0.411197 -0.025130 0.059485 81 73 71
-0.407336 -0.025130 0.082146 62 54 51
-0.403475 -0.025130 0.105751 147 141 125
-0.399614 -0.025130 0.122747 80 77 65
-0.395753 -0.025130 0.126524 203 202 201
-0.391892 -0.025130 0.114249 166 159 150
-0.388031 -0.025130 0.096309 128 118 106
-0.384170 -0.025130 0.083090 142 141 130
-0.380309 -0.025130 0.076481 79 71 66
-0.376448 -0.025130 0.073648 130 118 108
-0.372587 -0.025130 0.067983 156 150 135
-0.368726 -0.025130 0.062318 85 71 56
-0.364865 -0.025130 0.059485 79 66 60
-0.361004 -0.025130 0.063262 116 105 98
-0.357143 -0.025130 0.071760 108 101 93
-0.353282 -0.025130 0.080258 28 25 17
-0.349421 -0.025130 0.085923 56 53 43
-0.345560 -0.025130 0.086867 96 82 64
-0.341699 -0.025130 0.082146 140 116 98
-0.337838 -0.025130 0.076481 158 141 125
-0.333977 -0.025130 0.071760 139 126 115
-0.330116 -0.025130 0.068927 145 135 132
-0.326255 -0.025130 0.069871 103 96 92
-0.322394 -0.025130 0.073648 79 70 58
-0.318533 -0.025130 0.081202 122 110 103
-0.314672 -0.025130 0.092532 100 96 88
-0.310811 -0.025130 0.102918 50 45 33
-0.306950 -0.025130 0.107639 109 107 101
-0.303089 -0.025130 0.105751 73 70 65
-0.299228 -0.025130 0.098197 76 74 49
-0.295367 -0.025130 0.090644 75 68 56
-0.291506 -0.025130 0.082146 61 54 48
-0.287645 -0.025130 0.075536 107 91 79
-0.283784 -0.025130 0.069871 110 99 84
-0.279923 -0.025130 0.065150 103 96 87
-0.276062 -0.025130 0.063262 109 100 85
-0.272201 -0.025130 0.066094 96 94 79
-0.268340 -0.025130 0.074592 60 57 54
-0.264479 -0.025130 0.086867 83 81 72
-0.260618 -0.025130 0.100086 85 85 75
-0.256757 -0.025130 0.113305 81 81 53
-0.252896 -0.025130 0.125579 82 84 57
-0.249035 -0.025130 0.141631 86 87 72
-0.245174 -0.025130 0.162403 118 110 100
-0.241313 -0.025130 0.180343 124 115 93
-0.237452 -0.025130 0.189785 181 166 143
-0.233591 -0.025130 0.183176 148 133 114
-0.229730 -0.025130 0.161459 143 133 119
-0.225869 -0.025130 0.137854 106 100 96
-0.222008 -0.025130 0.120858 112 106 101
-0.218147 -0.025130 0.115193 114 109 102
-0.214286 -0.025130 0.114249 126 128 123
-0.210425 -0.025130 0.114249 148 148 128
-0.206564 -0.025130 0.112361 120 115 97
-0.202703 -0.025130 0.107639 130 124 122
-0.198842 -0.025130 0.099142 95 88 63
-0.194981 -0.025130 0.085923 110 102 75
-0.191120 -0.025130 0.068927 127 108 93
-0.187259 -0.025130 0.053820 89 78 68
-0.183398 -0.025130 0.046266 84 74 63
-0.179537 -0.025130 0.045322 96 74 61
-0.175676 -0.025130 0.052876 128 113 100
-0.171815 -0.025130 0.066094 62 59 50
-0.167954 -0.025130 0.079313 76 74 68
-0.164093 -0.025130 0.089700 62 50 42
-0.160232 -0.025130 0.095365 69 58 47
-0.156371 -0.025130 0.096309 118 109 107
-0.152510 -0.025130 0.093476 83 61 46
-0.148649 -0.025130 0.084979 124 113 95
-0.144788 -0.025130 0.071760 89 82 76
-0.140927 -0.025130 0.054764 80 73 65
-0.137066 -0.025130 0.042489 103 93 84
-0.133205 -0.025130 0.036824 80 69 62
-0.129344 -0.025130 0.037768 31 28 26
-0.125483 -0.025130 0.045322 60 49 42
-0.121622 -0.025130 0.058541 85 74 62
-0.117761 -0.025130 0.074592 108 104 99
-0.113900 -0.025130 0.089700 149 144 141
-0.110039 -0.025130 0.098197 103 92 84
-0.106178 -0.025130 0.099142 58 51 41
-0.102317 -0.025130 0.089700 109 105 96
-0.098456 -0.025130 0.075536 69 64 56
-0.094595 -0.025130 0.056652 64 58 44
-0.090734 -0.025130 0.036824 116 109 82
-0.086873 -0.025130 0.020773 98 84 78
-0.083012 -0.025130 0.012275 120 104 93
-0.079151 -0.025130 0.014163 90 79 69
-0.075290 -0.025130 0.027382 78 68 62
-0.071429 -0.025130 0.049099 44 38 34
-0.067568 -0.025130 0.072704 91 87 85
-0.063707 -0.025130 0.092532 115 113 108
-0.059846 -0.025130 0.107639 81 80 75
-0.055985 -0.025130 0.119914 27 21 14
-0.052124 -0.025130 0.129356 62 60 56
-0.048263 -0.025130 0.139742 118 109 102
-0.044402 -0.025130 0.146352 167 162 152
-0.040541 -0.025130 0.143519 157 154 143
-0.036680 -0.025130 0.131245 141 130 116
-0.032819 -0.025130 0.111416 114 100 85
-0.028958 -0.025130 0.092532 130 119 106
-0.025097 -0.025130 0.082146 89 81 71
-0.021236 -0.025130 0.084034 46 43 37
-0.017375 -0.025130 0.095365 97 91 74
-0.013514 -0.025130 0.109528 111 98 87
-0.009652 -0.025130 0.119914 102 93 67
-0.005792 -0.025130 0.126524 113 106 79
-0.001931 -0.025130 0.126524 77 76 48
0.001930 -0.025130 0.119914 89 83 71
0.005791 -0.025130 0.106695 118 105 88
0.009652 -0.025130 0.086867 129 115 98
0.013514 -0.025130 0.064206 99 90 81
0.017375 -0.025130 0.047210 111 98 85
0.021236 -0.025130 0.038712 97 75 60
0.025097 -0.025130 0.040601 72 55 51
0.028958 -0.025130 0.051931 88 69 63
0.032819 -0.025130 0.069871 80 72 55
0.036680 -0.025130 0.088755 125 130 108
0.040541 -0.025130 0.104807 90 83 71
0.044402 -0.025130 0.118970 98 89 67
0.048263 -0.025130 0.131245 38 37 17
0.052124 -0.025130 0.139742 154 151 149
0.055985 -0.025130 0.139742 176 173 168
0.059846 -0.025130 0.126524 146 141 120
0.063707 -0.025130 0.102918 167 152 134
0.067568 -0.025130 0.080258 129 101 84
0.071429 -0.025130 0.067039 109 97 66
0.075290 -0.025130 0.068927 107 92 66
0.079151 -0.025130 0.084034 102 87 69
0.083012 -0.025130 0.102918 142 137 128
0.086873 -0.025130 0.117082 143 132 128
0.090734 -0.025130 0.126524 96 91 85
0.094595 -0.025130 0.132189 47 47 24
0.098456 -0.025130 0.134077 83 82 53
0.102317 -0.025130 0.132189 136 134 109
0.106178 -0.025130 0.126524 112 94 65
0.110039 -0.025130 0.118026 108 97 69
0.113900 -0.025130 0.107639 104 100 60
0.117761 -0.025130 0.098197 111 98 69
0.121622 -0.025130 0.088755 57 55 34
0.125483 -0.025130 0.083090 54 57 30
0.129344 -0.025130 0.082146 49 44 35
0.133205 -0.025130 0.085923 65 57 51
0.137066 -0.025130 0.094421 88 79 73
0.140927 -0.025130 0.107639 72 72 56
0.144788 -0.025130 0.120858 49 46 34
0.148649 -0.025130 0.132189 46 48 24
0.152510 -0.025130 0.135966 57 55 22
0.156371 -0.025130 0.132189 107 113 75
0.160232 -0.025130 0.118970 131 121 107
0.164093 -0.025130 0.099142 114 95 83
0.167954 -0.025130 0.077425 106 90 74
0.171815 -0.025130 0.060429 106 88 76
0.175676 -0.025130 0.055708 96 81 69
0.179537 -0.025130 0.062318 80 70 63
0.183398 -0.025130 0.082146 35 35 27
0.187259 -0.025130 0.109528 87 85 76
0.191120 -0.025130 0.132189 98 90 83
0.194981 -0.025130 0.144464 153 152 146
0.198842 -0.025130 0.145408 107 101 82
0.202703 -0.025130 0.141631 86 77 61
0.206564 -0.025130 0.137854 125 122 117
0.210425 -0.025130 0.131245 93 84 75
0.214286 -0.025130 0.117082 94 78 61
0.218147 -0.025130 0.097253 68 59 51
0.222008 -0.025130 0.080258 82 72 63
0.225869 -0.025130 0.073648 51 36 28
0.229730 -0.025130 0.079313 59 58 54
0.233591 -0.025130 0.094421 93 89 75
0.237452 -0.025130 0.110472 148 143 130
0.241313 -0.025130 0.121803 102 98 88
0.245174 -0.025130 0.122747 35 35 10
0.249035 -0.025130 0.116137 79 77 55
0.252896 -0.025130 0.107639 113 104 85
0.256757 -0.025130 0.101974 98 89 60
0.260618 -0.025130 0.099142 86 83 60
0.264479 -0.025130 0.096309 110 103 82
0.268340 -0.025130 0.092532 109 98 82
0.272201 -0.025130 0.084979 62 53 48
0.276062 -0.025130 0.076481 76 67 59
0.279923 -0.025130 0.072704 107 103 99
0.283784 -0.025130 0.074592 54 51 44
0.287645 -0.025130 0.084034 34 32 24
0.291506 -0.025130 0.096309 53 49 39
0.295367 -0.025130 0.109528 90 86 76
0.299228 -0.025130 0.122747 113 106 91
0.303089 -0.025130 0.133133 141 128 113
0.306950 -0.025130 0.135021 173 166 158
0.310811 -0.025130 0.126524 144 134 126
0.314672 -0.025130 0.107639 113 102 95
0.318533 -0.025130 0.089700 106 95 78
0.322394 -0.025130 0.078369 88 78 72
0.326255 -0.025130 0.077425 53 50 40
0.330116 -0.025130 0.083090 58 55 44
0.333977 -0.025130 0.090644 69 61 50
0.337838 -0.025130 0.099142 102 98 91
0.341699 -0.025130 0.106695 49 44 32
0.345560 -0.025130 0.108584 149 145 138
0.349421 -0.025130 0.103863 107 103 93
0.353282 -0.025130 0.095365 104 95 81
0.357143 -0.025130 0.085923 83 78 61
0.361004 -0.025130 0.077425 82 78 65
0.364865 -0.025130 0.071760 60 57 41
0.368726 -0.025130 0.067039 28 26 23
0.372587 -0.025130 0.065150 54 52 39
0.376448 -0.025130 0.068927 90 83 67
0.380309 -0.025130 0.077425 57 48 39
0.384170 -0.025130 0.089700 54 47 32
0.388031 -0.025130 0.100086 63 59 43
0.391892 -0.025130 0.101974 125 124 119
0.395753 -0.025130 0.097253 123 118 102
0.399614 -0.025130 0.089700 119 110 92
0.403475 -0.025130 0.082146 73 64 58
0.407336 -0.025130 0.075536 114 109 108
0.411197 -0.025130 0.071760 123 115 112
0.415058 -0.025130 0.072704 55 49 45
0.418919 -0.025130 0.079313 72 64 58
0.422780 -0.025130 0.088755 53 51 38
0.426641 -0.025130 0.094421 141 138 133
0.430502 -0.025130 0.092532 109 99 82
0.434363 -0.025130 0.085923 84 76 59
0.438224 -0.025130 0.076481 90 83 62
0.442085 -0.025130 0.071760 87 81 69
0.445946 -0.025130 0.072704 96 89 72
0.449807 -0.025130 0.077425 89 84 61
0.453668 -0.025130 0.084979 41 36 32
0.457529 -0.025130 0.091588 67 62 54
0.461390 -0.025130 0.098197 64 59 54
0.465251 -0.025130 0.101030 65 62 44
0.469112 -0.025130 0.101974 53 55 36
0.472973 -0.025130 0.098197 88 89 77
0.476834 -0.025130 0.091588 115 115 105
0.480695 -0.025130 0.083090 100 97 94
0.484556 -0.025130 0.073648 97 97 94
0.488417 -0.025130 0.064206 142 138 138
0.492278 -0.025130 0.054764 74 65 62
0.496139 -0.025130 0.045322 67 59 56
0.500000 -0.025130 0.040601 73 63 60
-0.500000 -0.028996 0.067039 78 68 60
-0.496139 -0.028996 0.070815 67 61 44
-0.492278 -0.028996 0.076481 58 55 44
-0.488417 -0.028996 0.084034 76 74 65
-0.484556 -0.028996 0.086867 95 89 76
-0.480695 -0.028996 0.084034 111 102 92
-0.476834 -0.028996 0.076481 121 107 88
-0.472973 -0.028996 0.069871 160 149 142
-0.469112 -0.028996 0.065150 105 98 93
-0.465251 -0.028996 0.064206 95 85 83
-0.461390 -0.028996 0.063262 136 128 120
-0.457529 -0.028996 0.061373 114 108 100
-0.453668 -0.028996 0.059485 81 75 66
-0.449807 -0.028996 0.056652 52 45 42
-0.445946 -0.028996 0.054764 58 51 47
-0.442085 -0.028996 0.051931 44 37 27
-0.438224 -0.028996 0.046266 18 13 10
-0.434363 -0.028996 0.036824 83 68 59
-0.430502 -0.028996 0.026438 102 85 75
-0.426641 -0.028996 0.019828 97 81 73
-0.422780 -0.028996 0.017940 121 110 104
-0.418919 -0.028996 0.024549 119 116 110
-0.415058 -0.028996 0.035880 88 84 73
-0.411197 -0.028996 0.051931 58 49 48
-0.407336 -0.028996 0.071760 87 80 76
-0.403475 -0.028996 0.092532 129 121 120
-0.399614 -0.028996 0.107639 152 151 151
-0.395753 -0.028996 0.111416 76 73 69
-0.391892 -0.028996 0.100086 107 102 100
-0.388031 -0.028996 0.084034 114 97 91
-0.384170 -0.028996 0.072704 59 52 41
-0.380309 -0.028996 0.067983 46 41 36
-0.376448 -0.028996 0.067039 155 149 147
-0.372587 -0.028996 0.065150 108 100 86
-0.368726 -0.028996 0.061373 108 98 91
-0.364865 -0.028996 0.058541 80 66 61
-0.361004 -0.028996 0.061373 75 62 52
-0.357143 -0.028996 0.068927 65 60 51
-0.353282 -0.028996 0.077425 53 51 36
-0.349421 -0.028996 0.084034 141 136 121
-0.345560 -0.028996 0.085923 104 90 70
-0.341699 -0.028996 0.083090 136 107 88
-0.337838 -0.028996 0.079313 142 124 111
-0.333977 -0.028996 0.075536 121 112 106
-0.330116 -0.028996 0.073648 128 122 108
-0.326255 -0.028996 0.073648 113 105 89
-0.322394 -0.028996 0.077425 104 99 78
-0.318533 -0.028996 0.084979 59 51 41
-0.314672 -0.028996 0.097253 36 30 21
-0.310811 -0.028996 0.107639 67 64 47
-0.306950 -0.028996 0.111416 106 105 88
-0.303089 -0.028996 0.106695 161 157 150
-0.299228 -0.028996 0.096309 130 128 117
-0.295367 -0.028996 0.085923 145 141 136
-0.291506 -0.028996 0.078369 143 133 117
-0.287645 -0.028996 0.073648 149 132 113
-0.283784 -0.028996 0.069871 92 68 57
-0.279923 -0.028996 0.067983 100 91 84
-0.276062 -0.028996 0.067983 132 125 122
-0.272201 -0.028996 0.070815 119 113 111
-0.268340 -0.028996 0.075536 71 64 59
-0.264479 -0.028996 0.081202 63 62 58
-0.260618 -0.028996 0.088755 69 66 59
-0.256757 -0.028996 0.100086 71 64 56
-0.252896 -0.028996 0.114249 83 73 61
-0.249035 -0.028996 0.133133 168 158 155
-0.245174 -0.028996 0.156738 156 152 135
-0.241313 -0.028996 0.176567 183 165 131
-0.237452 -0.028996 0.186009 209 192 167
-0.233591 -0.028996 0.179399 186 171 147
-0.229730 -0.028996 0.158627 165 146 127
-0.225869 -0.028996 0.135021 136 122 108
-0.222008 -0.028996 0.118970 92 84 72
-0.218147 -0.028996 0.113305 89 80 74
-0.214286 -0.028996 0.117082 178 176 172
-0.210425 -0.028996 0.119914 106 105 91
-0.206564 -0.028996 0.119914 47 49 22
-0.202703 -0.028996 0.116137 89 74 54
-0.198842 -0.028996 0.106695 172 163 155
-0.194981 -0.028996 0.092532 139 131 114
-0.191120 -0.028996 0.073648 116 94 79
-0.187259 -0.028996 0.057597 84 74 64
-0.183398 -0.028996 0.047210 89 88 62
-0.179537 -0.028996 0.046266 100 84 70
-0.175676 -0.028996 0.053820 106 86 71
-0.171815 -0.028996 0.064206 117 113 107
-0.167954 -0.028996 0.076481 67 58 52
-0.164093 -0.028996 0.086867 91 87 76
-0.160232 -0.028996 0.093476 115 113 106
-0.156371 -0.028996 0.096309 134 136 132
-0.152510 -0.028996 0.096309 115 109 79
-0.148649 -0.028996 0.089700 135 116 99
-0.144788 -0.028996 0.077425 116 107 87
-0.140927 -0.028996 0.061373 92 90 77
-0.137066 -0.028996 0.047210 75 67 62
-0.133205 -0.028996 0.039657 97 83 74
-0.129344 -0.028996 0.040601 76 67 62
-0.125483 -0.028996 0.050043 78 69 62
-0.121622 -0.028996 0.067039 96 85 75
-0.117761 -0.028996 0.084979 99 95 91
-0.113900 -0.028996 0.099142 151 149 146
-0.110039 -0.028996 0.105751 91 84 83
-0.106178 -0.028996 0.103863 109 106 104
-0.102317 -0.028996 0.092532 100 99 97
-0.098456 -0.028996 0.075536 64 55 45
-0.094595 -0.028996 0.055708 80 64 51
-0.090734 -0.028996 0.036824 69 57 50
-0.086873 -0.028996 0.022661 96 80 69
-0.083012 -0.028996 0.016996 115 92 77
-0.079151 -0.028996 0.022661 93 81 74
-0.075290 -0.028996 0.038712 110 90 78
-0.071429 -0.028996 0.062318 82 72 62
-0.067568 -0.028996 0.085923 52 45 36
-0.063707 -0.028996 0.105751 146 139 132
-0.059846 -0.028996 0.121803 138 137 137
-0.055985 -0.028996 0.134077 146 147 145
-0.052124 -0.028996 0.143519 101 97 85
-0.048263 -0.028996 0.152017 83 73 65
-0.044402 -0.028996 0.157682 109 96 84
-0.040541 -0.028996 0.152961 167 161 147
-0.036680 -0.028996 0.138798 172 165 160
-0.032819 -0.028996 0.116137 131 116 98
-0.028958 -0.028996 0.097253 142 126 105
-0.025097 -0.028996 0.087811 99 89 78
-0.021236 -0.028996 0.092532 67 59 49
-0.017375 -0.028996 0.104807 84 76 68
-0.013514 -0.028996 0.118970 148 143 134
-0.009652 -0.028996 0.128412 98 93 87
-0.005792 -0.028996 0.135966 91 85 60
-0.001931 -0.028996 0.137854 106 119 56
0.001930 -0.028996 0.133133 126 122 97
0.005791 -0.028996 0.119914 155 146 132
0.009652 -0.028996 0.097253 136 122 112
0.013514 -0.028996 0.069871 98 81 70
0.017375 -0.028996 0.048155 117 105 89
0.021236 -0.028996 0.036824 86 73 61
0.025097 -0.028996 0.038712 103 80 66
0.028958 -0.028996 0.051931 89 74 62
0.032819 -0.028996 0.072704 59 54 47
0.036680 -0.028996 0.094421 140 136 134
0.040541 -0.028996 0.112361 85 77 72
0.044402 -0.028996 0.126524 69 61 40
0.048263 -0.028996 0.136910 70 64 40
0.052124 -0.028996 0.142575 135 127 117
0.055985 -0.028996 0.139742 160 143 130
0.059846 -0.028996 0.123691 97 88 68
0.063707 -0.028996 0.099142 123 98 83
0.067568 -0.028996 0.077425 121 97 80
0.071429 -0.028996 0.066094 82 75 53
0.075290 -0.028996 0.070815 106 90 69
0.079151 -0.028996 0.085923 142 135 121
0.083012 -0.028996 0.103863 171 167 160
0.086873 -0.028996 0.117082 101 95 75
0.090734 -0.028996 0.127468 106 98 89
0.094595 -0.028996 0.135021 122 121 117
0.098456 -0.028996 0.138798 87 88 69
0.102317 -0.028996 0.139742 107 105 86
0.106178 -0.028996 0.135021 113 106 75
0.110039 -0.028996 0.126524 137 133 117
0.113900 -0.028996 0.116137 107 101 86
0.117761 -0.028996 0.103863 105 90 78
0.121622 -0.028996 0.090644 34 26 25
0.125483 -0.028996 0.082146 31 26 23
0.129344 -0.028996 0.081202 69 62 55
0.133205 -0.028996 0.087811 109 96 86
0.137066 -0.028996 0.099142 89 80 73
0.140927 -0.028996 0.113305 88 81 76
0.144788 -0.028996 0.125579 107 105 101
0.148649 -0.028996 0.135966 172 170 160
0.152510 -0.028996 0.137854 96 92 83
0.156371 -0.028996 0.132189 119 122 112
0.160232 -0.028996 0.118026 203 194 188
0.164093 -0.028996 0.099142 147 140 121
0.167954 -0.028996 0.077425 125 106 90
0.171815 -0.028996 0.062318 110 93 82
0.175676 -0.028996 0.055708 51 45 39
0.179537 -0.028996 0.060429 44 40 37
0.183398 -0.028996 0.078369 33 30 26
0.187259 -0.028996 0.105751 4 1 0
0.191120 -0.028996 0.130300 42 35 29
0.194981 -0.028996 0.144464 162 154 151
0.198842 -0.028996 0.147296 142 128 117
0.202703 -0.028996 0.144464 73 60 50
0.206564 -0.028996 0.140687 113 109 104
0.210425 -0.028996 0.132189 197 194 190
0.214286 -0.028996 0.115193 147 133 119
0.218147 -0.028996 0.094421 97 86 71
0.222008 -0.028996 0.079313 112 99 88
0.225869 -0.028996 0.077425 65 53 45
0.229730 -0.028996 0.084034 35 33 26
0.233591 -0.028996 0.096309 56 51 42
0.237452 -0.028996 0.109528 34 28 18
0.241313 -0.028996 0.118026 38 34 23
0.245174 -0.028996 0.119914 49 48 35
0.249035 -0.028996 0.115193 81 77 64
0.252896 -0.028996 0.106695 100 98 88
0.256757 -0.028996 0.097253 70 72 48
0.260618 -0.028996 0.090644 91 86 62
0.264479 -0.028996 0.086867 120 117 86
0.268340 -0.028996 0.083090 131 125 111
0.272201 -0.028996 0.078369 98 88 76
0.276062 -0.028996 0.071760 78 65 57
0.279923 -0.028996 0.069871 82 78 76
0.283784 -0.028996 0.072704 68 65 55
0.287645 -0.028996 0.079313 110 108 88
0.291506 -0.028996 0.089700 82 75 63
0.295367 -0.028996 0.101030 92 87 85
0.299228 -0.028996 0.113305 116 114 100
0.303089 -0.028996 0.122747 92 82 68
0.306950 -0.028996 0.125579 141 132 122
0.310811 -0.028996 0.118970 120 100 73
0.314672 -0.028996 0.102918 121 110 83
0.318533 -0.028996 0.086867 120 105 91
0.322394 -0.028996 0.078369 110 91 79
0.326255 -0.028996 0.079313 121 114 108
0.330116 -0.028996 0.085923 71 67 54
0.333977 -0.028996 0.092532 64 64 30
0.337838 -0.028996 0.098197 73 72 42
0.341699 -0.028996 0.101974 54 49 40
0.345560 -0.028996 0.102918 67 58 49
0.349421 -0.028996 0.097253 118 110 104
0.353282 -0.028996 0.087811 126 115 110
0.357143 -0.028996 0.079313 99 96 86
0.361004 -0.028996 0.069871 68 69 41
0.364865 -0.028996 0.063262 116 112 83
0.368726 -0.028996 0.058541 53 45 43
0.372587 -0.028996 0.058541 21 19 15
0.376448 -0.028996 0.063262 48 47 37
0.380309 -0.028996 0.072704 72 72 58
0.384170 -0.028996 0.083090 99 97 86
0.388031 -0.028996 0.090644 94 92 77
0.391892 -0.028996 0.090644 101 101 88
0.395753 -0.028996 0.086867 119 111 102
0.399614 -0.028996 0.081202 121 109 94
0.403475 -0.028996 0.077425 110 90 77
0.407336 -0.028996 0.070815 100 91 80
0.411197 -0.028996 0.065150 85 78 68
0.415058 -0.028996 0.064206 69 67 57
0.418919 -0.028996 0.070815 84 79 69
0.422780 -0.028996 0.080258 65 65 52
0.426641 -0.028996 0.086867 101 95 70
0.430502 -0.028996 0.085923 93 84 71
0.434363 -0.028996 0.081202 138 132 126
0.438224 -0.028996 0.072704 95 84 76
0.442085 -0.028996 0.067983 81 78 72
0.445946 -0.028996 0.067039 95 87 71
0.449807 -0.028996 0.070815 70 67 43
0.453668 -0.028996 0.076481 75 72 62
0.457529 -0.028996 0.084034 131 121 111
0.461390 -0.028996 0.091588 43 35 26
0.465251 -0.028996 0.097253 60 59 47
0.469112 -0.028996 0.101974 131 127 121
0.472973 -0.028996 0.101030 105 98 93
0.476834 -0.028996 0.095365 117 118 111
0.480695 -0.028996 0.085923 142 140 134
0.484556 -0.028996 0.072704 75 65 59
0.488417 -0.028996 0.059485 103 100 99
0.492278 -0.028996 0.049099 103 94 90
0.496139 -0.028996 0.039657 58 49 47
0.500000 -0.028996 0.034936 35 27 23
-0.500000 -0.032862 0.052876 101 98 92
-0.496139 -0.032862 0.058541 70 67 53
-0.492278 -0.032862 0.066094 39 35 31
-0.488417 -0.032862 0.076481 88 80 76
-0.484556 -0.032862 0.083090 168 156 154
-0.480695 -0.032862 0.083090 111 90 78
-0.476834 -0.032862 0.078369 85 76 53
-0.472973 -0.032862 0.073648 124 113 103
-0.469112 -0.032862 0.072704 96 89 83
-0.465251 -0.032862 0.074592 132 125 120
-0.461390 -0.032862 0.076481 179 174 168
-0.457529 -0.032862 0.074592 121 120 114
-0.453668 -0.032862 0.069871 81 71 60
-0.449807 -0.032862 0.063262 134 126 122
-0.445946 -0.032862 0.059485 50 49 47
-0.442085 -0.032862 0.056652 87 79 64
-0.438224 -0.032862 0.051931 119 109 101
-0.434363 -0.032862 0.043433 154 143 131
-0.430502 -0.032862 0.033991 106 91 79
-0.426641 -0.032862 0.026438 113 100 95
-0.422780 -0.032862 0.025494 102 94 86
-0.418919 -0.032862 0.030215 104 97 91
-0.415058 -0.032862 0.038712 97 92 85
-0.411197 -0.032862 0.050043 61 53 45
-0.407336 -0.032862 0.063262 58 50 44
-0.403475 -0.032862 0.076481 61 55 41
-0.399614 -0.032862 0.085923 148 144 130
-0.395753 -0.032862 0.086867 56 57 37
-0.391892 -0.032862 0.077425 32 22 14
-0.388031 -0.032862 0.064206 110 85 73
-0.384170 -0.032862 0.056652 119 100 86
-0.380309 -0.032862 0.056652 65 59 51
-0.376448 -0.032862 0.059485 94 81 72
-0.372587 -0.032862 0.059485 92 82 74
-0.368726 -0.032862 0.058541 128 123 121
-0.364865 -0.032862 0.059485 128 125 125
-0.361004 -0.032862 0.062318 91 86 87
-0.357143 -0.032862 0.068927 45 39 39
-0.353282 -0.032862 0.076481 36 31 26
-0.349421 -0.032862 0.083090 84 73 58
-0.345560 -0.032862 0.086867 114 94 80
-0.341699 -0.032862 0.085923 140 119 102
-0.337838 -0.032862 0.084034 129 111 94
-0.333977 -0.032862 0.081202 103 94 90
-0.330116 -0.032862 0.080258 160 157 153
-0.326255 -0.032862 0.079313 117 105 90
-0.322394 -0.032862 0.083090 66 59 46
-0.318533 -0.032862 0.091588 97 92 84
-0.314672 -0.032862 0.103863 145 144 143
-0.310811 -0.032862 0.113305 122 117 115
-0.306950 -0.032862 0.113305 154 157 147
-0.303089 -0.032862 0.105751 53 57 36
-0.299228 -0.032862 0.092532 46 39 35
-0.295367 -0.032862 0.082146 80 64 54
-0.291506 -0.032862 0.077425 108 89 74
-0.287645 -0.032862 0.074592 119 104 90
-0.283784 -0.032862 0.074592 111 99 92
-0.279923 -0.032862 0.075536 133 130 130
-0.276062 -0.032862 0.078369 85 80 74
-0.272201 -0.032862 0.080258 94 92 86
-0.268340 -0.032862 0.081202 86 78 62
-0.264479 -0.032862 0.082146 34 29 22
-0.260618 -0.032862 0.084979 62 53 48
-0.256757 -0.032862 0.092532 62 56 47
-0.252896 -0.032862 0.106695 72 63 52
-0.249035 -0.032862 0.127468 98 77 61
-0.245174 -0.032862 0.152961 114 90 68
-0.241313 -0.032862 0.174678 123 110 89
-0.237452 -0.032862 0.184120 181 168 146
-0.233591 -0.032862 0.177511 159 148 118
-0.229730 -0.032862 0.158627 122 110 86
-0.225869 -0.032862 0.135021 130 122 114
-0.222008 -0.032862 0.118970 95 89 81
-0.218147 -0.032862 0.114249 144 141 139
-0.214286 -0.032862 0.118970 115 115 108
-0.210425 -0.032862 0.122747 119 120 119
-0.206564 -0.032862 0.122747 76 71 49
-0.202703 -0.032862 0.118026 107 95 71
-0.198842 -0.032862 0.107639 147 128 110
-0.194981 -0.032862 0.092532 125 117 95
-0.191120 -0.032862 0.073648 124 114 80
-0.187259 -0.032862 0.059485 80 64 56
-0.183398 -0.032862 0.050987 83 73 62
-0.179537 -0.032862 0.051931 91 79 71
-0.175676 -0.032862 0.059485 73 59 55
-0.171815 -0.032862 0.069871 94 82 77
-0.167954 -0.032862 0.080258 93 92 92
-0.164093 -0.032862 0.089700 129 124 119
-0.160232 -0.032862 0.097253 123 118 106
-0.156371 -0.032862 0.102918 99 100 82
-0.152510 -0.032862 0.106695 127 120 93
-0.148649 -0.032862 0.101974 127 124 109
-0.144788 -0.032862 0.090644 115 105 89
-0.140927 -0.032862 0.072704 121 107 93
-0.137066 -0.032862 0.055708 60 54 51
-0.133205 -0.032862 0.047210 60 50 46
-0.129344 -0.032862 0.048155 107 91 83
-0.125483 -0.032862 0.061373 105 93 81
-0.121622 -0.032862 0.081202 135 127 122
-0.117761 -0.032862 0.101030 151 146 146
-0.113900 -0.032862 0.115193 83 71 65
-0.110039 -0.032862 0.117082 57 47 34
-0.106178 -0.032862 0.111416 156 153 144
-0.102317 -0.032862 0.097253 152 153 144
-0.098456 -0.032862 0.078369 119 117 111
-0.094595 -0.032862 0.058541 50 46 41
-0.090734 -0.032862 0.039657 65 57 53
-0.086873 -0.032862 0.027382 90 79 63
-0.083012 -0.032862 0.023605 99 82 69
-0.079151 -0.032862 0.032103 111 93 85
-0.075290 -0.032862 0.050043 105 80 66
-0.071429 -0.032862 0.073648 144 132 118
-0.067568 -0.032862 0.097253 143 138 131
-0.063707 -0.032862 0.117082 125 114 103
-0.059846 -0.032862 0.133133 78 78 72
-0.055985 -0.032862 0.146352 183 182 176
-0.052124 -0.032862 0.155794 86 86 72
-0.048263 -0.032862 0.162403 42 40 33
-0.044402 -0.032862 0.167124 91 79 70
-0.040541 -0.032862 0.161459 184 171 148
-0.036680 -0.032862 0.146352 152 137 125
-0.032819 -0.032862 0.123691 113 93 84
-0.028958 -0.032862 0.103863 125 109 98
-0.025097 -0.032862 0.094421 110 104 88
-0.021236 -0.032862 0.100086 86 76 62
-0.017375 -0.032862 0.111416 123 115 99
-0.013514 -0.032862 0.125579 167 162 153
-0.009652 -0.032862 0.135021 61 59 52
-0.005792 -0.032862 0.142575 89 92 63
-0.001931 -0.032862 0.146352 96 105 54
0.001930 -0.032862 0.143519 145 133 111
0.005791 -0.032862 0.130300 173 156 131
0.009652 -0.032862 0.105751 121 109 91
0.013514 -0.032862 0.076481 113 98 87
0.017375 -0.032862 0.050987 122 111 99
0.021236 -0.032862 0.038712 81 72 60
0.025097 -0.032862 0.038712 79 71 58
0.028958 -0.032862 0.051931 41 37 32
0.032819 -0.032862 0.073648 74 68 61
0.036680 -0.032862 0.097253 138 132 120
0.040541 -0.032862 0.116137 165 160 157
0.044402 -0.032862 0.129356 65 64 54
0.048263 -0.032862 0.136910 68 67 42
0.052124 -0.032862 0.140687 107 89 61
0.055985 -0.032862 0.135966 88 75 46
0.059846 -0.032862 0.118026 91 80 62
0.063707 -0.032862 0.093476 130 107 71
0.067568 -0.032862 0.072704 121 98 75
0.071429 -0.032862 0.063262 110 87 75
0.075290 -0.032862 0.069871 135 118 107
0.079151 -0.032862 0.084979 83 58 44
0.083012 -0.032862 0.103863 119 108 99
0.086873 -0.032862 0.118026 129 124 112
0.090734 -0.032862 0.131245 110 102 86
0.094595 -0.032862 0.140687 65 66 46
0.098456 -0.032862 0.146352 86 86 61
0.102317 -0.032862 0.147296 138 136 115
0.106178 -0.032862 0.142575 110 113 81
0.110039 -0.032862 0.133133 92 94 78
0.113900 -0.032862 0.119914 167 167 158
0.117761 -0.032862 0.103863 100 86 75
0.121622 -0.032862 0.089700 95 71 59
0.125483 -0.032862 0.081202 86 65 52
0.129344 -0.032862 0.083090 51 47 42
0.133205 -0.032862 0.093476 57 52 46
0.137066 -0.032862 0.108584 56 48 37
0.140927 -0.032862 0.122747 39 36 32
0.144788 -0.032862 0.134077 59 57 44
0.148649 -0.032862 0.139742 116 117 102
0.152510 -0.032862 0.138798 135 136 121
0.156371 -0.032862 0.130300 129 120 111
0.160232 -0.032862 0.113305 140 128 120
0.164093 -0.032862 0.093476 110 102 79
0.167954 -0.032862 0.073648 106 103 67
0.171815 -0.032862 0.060429 115 112 82
0.175676 -0.032862 0.053820 39 31 28
0.179537 -0.032862 0.056652 28 25 22
0.183398 -0.032862 0.072704 23 20 18
0.187259 -0.032862 0.100086 18 14 12
0.191120 -0.032862 0.126524 40 36 32
0.194981 -0.032862 0.142575 136 135 121
0.198842 -0.032862 0.147296 87 83 66
0.202703 -0.032862 0.147296 65 56 48
0.206564 -0.032862 0.142575 156 152 147
0.210425 -0.032862 0.131245 171 171 161
0.214286 -0.032862 0.113305 125 115 103
0.218147 -0.032862 0.093476 86 74 62
0.222008 -0.032862 0.081202 86 78 67
0.225869 -0.032862 0.081202 68 61 54
0.229730 -0.032862 0.088755 22 19 16
0.233591 -0.032862 0.099142 71 71 62
0.237452 -0.032862 0.108584 115 113 105
0.241313 -0.032862 0.116137 57 55 45
0.245174 -0.032862 0.120858 118 114 112
0.249035 -0.032862 0.118970 104 98 92
0.252896 -0.032862 0.111416 114 104 92
0.256757 -0.032862 0.099142 97 91 87
0.260618 -0.032862 0.087811 136 111 94
0.264479 -0.032862 0.080258 104 88 62
0.268340 -0.032862 0.075536 121 122 109
0.272201 -0.032862 0.072704 102 93 81
0.276062 -0.032862 0.068927 46 41 37
0.279923 -0.032862 0.069871 52 50 43
0.283784 -0.032862 0.072704 42 39 34
0.287645 -0.032862 0.080258 74 74 58
0.291506 -0.032862 0.090644 92 92 79
0.295367 -0.032862 0.101030 69 62 50
0.299228 -0.032862 0.112361 96 88 73
0.303089 -0.032862 0.120858 126 120 112
0.306950 -0.032862 0.123691 116 108 98
0.310811 -0.032862 0.116137 144 129 103
0.314672 -0.032862 0.101030 95 84 67
0.318533 -0.032862 0.086867 78 69 57
0.322394 -0.032862 0.079313 54 42 37
0.326255 -0.032862 0.081202 64 60 49
0.330116 -0.032862 0.086867 97 97 78
0.333977 -0.032862 0.092532 67 65 47
0.337838 -0.032862 0.097253 84 82 62
0.341699 -0.032862 0.099142 84 83 62
0.345560 -0.032862 0.099142 111 110 101
0.349421 -0.032862 0.095365 118 107 93
0.353282 -0.032862 0.086867 103 93 88
0.357143 -0.032862 0.078369 108 98 94
0.361004 -0.032862 0.067039 75 61 48
0.364865 -0.032862 0.057597 87 75 63
0.368726 -0.032862 0.051931 49 40 36
0.372587 -0.032862 0.052876 70 61 54
0.376448 -0.032862 0.059485 78 65 56
0.380309 -0.032862 0.069871 71 65 53
0.384170 -0.032862 0.079313 101 100 77
0.388031 -0.032862 0.084034 133 131 124
0.391892 -0.032862 0.084034 116 108 104
0.395753 -0.032862 0.081202 110 101 93
0.399614 -0.032862 0.078369 133 118 106
0.403475 -0.032862 0.075536 139 127 115
0.407336 -0.032862 0.068927 86 81 64
0.411197 -0.032862 0.060429 41 36 30
0.415058 -0.032862 0.058541 85 77 74
0.418919 -0.032862 0.064206 82 70 63
0.422780 -0.032862 0.074592 42 38 27
0.426641 -0.032862 0.083090 74 73 43
0.430502 -0.032862 0.084034 83 77 58
0.434363 -0.032862 0.079313 110 100 87
0.438224 -0.032862 0.069871 93 83 76
0.442085 -0.032862 0.065150 107 105 105
0.445946 -0.032862 0.063262 69 59 55
0.449807 -0.032862 0.065150 35 29 27
0.453668 -0.032862 0.069871 58 55 39
0.457529 -0.032862 0.076481 107 97 81
0.461390 -0.032862 0.084979 66 58 55
0.465251 -0.032862 0.095365 61 55 46
0.469112 -0.032862 0.104807 47 45 31
0.472973 -0.032862 0.107639 67 67 54
0.476834 -0.032862 0.104807 77 73 58
0.480695 -0.032862 0.093476 107 107 97
0.484556 -0.032862 0.077425 117 113 107
0.488417 -0.032862 0.060429 82 76 73
0.492278 -0.032862 0.045322 113 105 98
0.496139 -0.032862 0.035880 74 64 61
0.500000 -0.032862 0.032103 30 25 23
-0.500000 -0.036728 0.046266 72 67 66
-0.496139 -0.036728 0.051931 65 57 48
-0.492278 -0.036728 0.060429 74 66 58
-0.488417 -0.036728 0.072704 75 69 63
-0.484556 -0.036728 0.081202 111 106 101
-0.480695 -0.036728 0.084979 76 66 51
-0.476834 -0.036728 0.084979 106 98 84
-0.472973 -0.036728 0.083090 106 95 80
-0.469112 -0.036728 0.083090 95 85 78
-0.465251 -0.036728 0.085923 98 90 81
-0.461390 -0.036728 0.088755 131 125 124
-0.457529 -0.036728 0.085923 52 49 47
-0.453668 -0.036728 0.079313 41 38 28
-0.449807 -0.036728 0.071760 105 100 92
-0.445946 -0.036728 0.067039 69 62 50
-0.442085 -0.036728 0.062318 107 102 81
-0.438224 -0.036728 0.057597 110 104 100
-0.434363 -0.036728 0.050043 105 100 86
-0.430502 -0.036728 0.043433 111 97 80
-0.426641 -0.036728 0.038712 121 99 86
-0.422780 -0.036728 0.038712 126 112 105
-0.418919 -0.036728 0.041545 102 92 80
-0.415058 -0.036728 0.047210 68 61 52
-0.411197 -0.036728 0.052876 124 117 112
-0.407336 -0.036728 0.058541 91 79 72
-0.403475 -0.036728 0.062318 131 128 125
-0.399614 -0.036728 0.064206 108 104 97
-0.395753 -0.036728 0.061373 91 92 75
-0.391892 -0.036728 0.052876 75 62 51
-0.388031 -0.036728 0.044378 72 59 51
-0.384170 -0.036728 0.042489 110 89 79
-0.380309 -0.036728 0.047210 89 76 69
-0.376448 -0.036728 0.052876 90 77 67
-0.372587 -0.036728 0.055708 97 84 70
-0.368726 -0.036728 0.056652 130 125 124
-0.364865 -0.036728 0.057597 122 118 116
-0.361004 -0.036728 0.061373 102 96 87
-0.357143 -0.036728 0.067983 29 26 20
-0.353282 -0.036728 0.076481 57 51 42
-0.349421 -0.036728 0.084979 82 65 53
-0.345560 -0.036728 0.089700 106 92 77
-0.341699 -0.036728 0.090644 177 166 149
-0.337838 -0.036728 0.089700 133 119 102
-0.333977 -0.036728 0.087811 130 120 116
-0.330116 -0.036728 0.085923 143 140 133
-0.326255 -0.036728 0.084034 125 119 108
-0.322394 -0.036728 0.085923 72 63 58
-0.318533 -0.036728 0.095365 100 93 88
-0.314672 -0.036728 0.106695 106 98 91
-0.310811 -0.036728 0.116137 97 101 77
-0.306950 -0.036728 0.113305 37 35 28
-0.303089 -0.036728 0.102918 79 74 71
-0.299228 -0.036728 0.087811 78 71 63
-0.295367 -0.036728 0.079313 79 62 55
-0.291506 -0.036728 0.078369 77 64 57
-0.287645 -0.036728 0.081202 151 137 119
-0.283784 -0.036728 0.084034 127 115 102
-0.279923 -0.036728 0.087811 121 117 114
-0.276062 -0.036728 0.090644 135 127 119
-0.272201 -0.036728 0.093476 151 149 141
-0.268340 -0.036728 0.092532 104 101 98
-0.264479 -0.036728 0.089700 62 52 45
-0.260618 -0.036728 0.088755 48 42 39
-0.256757 -0.036728 0.092532 36 32 22
-0.252896 -0.036728 0.105751 132 129 125
-0.249035 -0.036728 0.127468 107 103 97
-0.245174 -0.036728 0.153906 116 100 88
-0.241313 -0.036728 0.176567 155 144 121
-0.237452 -0.036728 0.185064 172 162 135
-0.233591 -0.036728 0.177511 148 147 125
-0.229730 -0.036728 0.159571 120 113 102
-0.225869 -0.036728 0.137854 81 75 63
-0.222008 -0.036728 0.121803 106 102 98
-0.218147 -0.036728 0.116137 111 105 93
-0.214286 -0.036728 0.118026 77 70 58
-0.210425 -0.036728 0.121803 163 160 157
-0.206564 -0.036728 0.120858 62 63 36
-0.202703 -0.036728 0.114249 103 95 80
-0.198842 -0.036728 0.102918 141 132 116
-0.194981 -0.036728 0.085923 115 103 74
-0.191120 -0.036728 0.069871 106 92 69
-0.187259 -0.036728 0.059485 83 78 59
-0.183398 -0.036728 0.055708 96 83 69
-0.179537 -0.036728 0.060429 115 103 95
-0.175676 -0.036728 0.070815 85 81 72
-0.171815 -0.036728 0.081202 72 65 54
-0.167954 -0.036728 0.090644 123 114 103
-0.164093 -0.036728 0.099142 95 80 74
-0.160232 -0.036728 0.105751 110 99 80
-0.156371 -0.036728 0.113305 117 118 92
-0.152510 -0.036728 0.118026 125 119 103
-0.148649 -0.036728 0.115193 171 172 166
-0.144788 -0.036728 0.101974 87 82 68
-0.140927 -0.036728 0.081202 86 80 63
-0.137066 -0.036728 0.063262 67 60 53
-0.133205 -0.036728 0.052876 57 52 43
-0.129344 -0.036728 0.057597 111 93 82
-0.125483 -0.036728 0.074592 95 85 75
-0.121622 -0.036728 0.098197 64 60 54
-0.117761 -0.036728 0.120858 103 99 89
-0.113900 -0.036728 0.132189 70 64 49
-0.110039 -0.036728 0.131245 88 77 63
-0.106178 -0.036728 0.119914 104 99 78
-0.102317 -0.036728 0.103863 127 130 123
-0.098456 -0.036728 0.084034 138 122 96
-0.094595 -0.036728 0.064206 90 77 68
-0.090734 -0.036728 0.045322 84 75 68
-0.086873 -0.036728 0.034936 106 91 83
-0.083012 -0.036728 0.032103 132 113 102
-0.079151 -0.036728 0.041545 107 93 85
-0.075290 -0.036728 0.057597 146 133 125
-0.071429 -0.036728 0.080258 127 117 100
-0.067568 -0.036728 0.102918 194 192 192
-0.063707 -0.036728 0.123691 106 100 93
-0.059846 -0.036728 0.141631 93 86 62
-0.055985 -0.036728 0.154850 122 125 106
-0.052124 -0.036728 0.164292 123 127 105
-0.048263 -0.036728 0.169957 56 50 33
-0.044402 -0.036728 0.171845 60 55 47
-0.040541 -0.036728 0.166180 170 161 136
-0.036680 -0.036728 0.152961 133 116 97
-0.032819 -0.036728 0.132189 117 98 85
-0.028958 -0.036728 0.113305 126 108 98
-0.025097 -0.036728 0.102918 147 128 111
-0.021236 -0.036728 0.105751 103 96 84
-0.017375 -0.036728 0.117082 148 141 128
-0.013514 -0.036728 0.129356 148 140 129
-0.009652 -0.036728 0.138798 76 68 62
-0.005792 -0.036728 0.146352 94 90 66
-0.001931 -0.036728 0.150129 109 107 65
0.001930 -0.036728 0.147296 145 134 106
0.005791 -0.036728 0.135021 175 161 141
0.009652 -0.036728 0.110472 126 118 89
0.013514 -0.036728 0.081202 113 102 84
0.017375 -0.036728 0.054764 117 104 98
0.021236 -0.036728 0.042489 76 69 62
0.025097 -0.036728 0.040601 93 76 67
0.028958 -0.036728 0.051931 48 41 36
0.032819 -0.036728 0.071760 46 42 39
0.036680 -0.036728 0.094421 98 94 85
0.040541 -0.036728 0.113305 140 132 127
0.044402 -0.036728 0.126524 103 97 89
0.048263 -0.036728 0.134077 57 53 31
0.052124 -0.036728 0.135966 95 82 57
0.055985 -0.036728 0.131245 92 84 61
0.059846 -0.036728 0.114249 106 104 72
0.063707 -0.036728 0.090644 125 124 84
0.067568 -0.036728 0.070815 106 94 80
0.071429 -0.036728 0.061373 106 83 71
0.075290 -0.036728 0.068927 107 88 77
0.079151 -0.036728 0.084979 90 84 81
0.083012 -0.036728 0.104807 155 150 145
0.086873 -0.036728 0.122747 96 82 72
0.090734 -0.036728 0.138798 45 39 34
0.094595 -0.036728 0.150129 39 43 26
0.098456 -0.036728 0.156738 123 125 111
0.102317 -0.036728 0.156738 128 124 114
0.106178 -0.036728 0.150129 105 97 79
0.110039 -0.036728 0.137854 87 87 71
0.113900 -0.036728 0.120858 98 97 66
0.117761 -0.036728 0.101974 77 68 42
0.121622 -0.036728 0.085923 93 75 50
0.125483 -0.036728 0.079313 64 46 35
0.129344 -0.036728 0.084034 58 59 57
0.133205 -0.036728 0.098197 175 172 167
0.137066 -0.036728 0.118026 172 168 165
0.140927 -0.036728 0.134077 128 127 125
0.144788 -0.036728 0.143519 57 57 37
0.148649 -0.036728 0.146352 115 107 90
0.152510 -0.036728 0.141631 93 80 54
0.156371 -0.036728 0.129356 109 94 83
0.160232 -0.036728 0.109528 114 94 80
0.164093 -0.036728 0.086867 115 101 83
0.167954 -0.036728 0.067039 114 99 82
0.171815 -0.036728 0.054764 78 68 55
0.175676 -0.036728 0.049099 23 20 17
0.179537 -0.036728 0.051931 33 30 27
0.183398 -0.036728 0.067983 29 26 24
0.187259 -0.036728 0.094421 52 46 35
0.191120 -0.036728 0.120858 130 137 131
0.194981 -0.036728 0.138798 135 133 109
0.198842 -0.036728 0.145408 45 45 18
0.202703 -0.036728 0.145408 78 74 68
0.206564 -0.036728 0.139742 105 101 96
0.210425 -0.036728 0.127468 147 145 139
0.214286 -0.036728 0.109528 135 134 123
0.218147 -0.036728 0.091588 103 97 84
0.222008 -0.036728 0.082146 91 74 61
0.225869 -0.036728 0.084034 104 98 91
0.229730 -0.036728 0.090644 164 164 164
0.233591 -0.036728 0.100086 75 68 58
0.237452 -0.036728 0.107639 99 101 67
0.241313 -0.036728 0.116137 66 74 40
0.245174 -0.036728 0.124635 95 94 83
0.249035 -0.036728 0.127468 146 147 143
0.252896 -0.036728 0.120858 158 156 153
0.256757 -0.036728 0.105751 74 63 57
0.260618 -0.036728 0.089700 89 77 68
0.264479 -0.036728 0.076481 82 73 62
0.268340 -0.036728 0.069871 75 68 54
0.272201 -0.036728 0.067983 68 65 54
0.276062 -0.036728 0.067983 91 91 84
0.279923 -0.036728 0.070815 58 56 49
0.283784 -0.036728 0.076481 66 61 58
0.287645 -0.036728 0.085923 30 26 22
0.291506 -0.036728 0.098197 110 107 101
0.295367 -0.036728 0.110472 91 81 68
0.299228 -0.036728 0.119914 156 149 139
0.303089 -0.036728 0.126524 130 123 111
0.306950 -0.036728 0.126524 136 127 114
0.310811 -0.036728 0.118026 182 177 169
0.314672 -0.036728 0.101974 135 126 120
0.318533 -0.036728 0.085923 99 92 80
0.322394 -0.036728 0.077425 67 65 55
0.326255 -0.036728 0.078369 49 45 32
0.330116 -0.036728 0.084034 135 131 120
0.333977 -0.036728 0.089700 103 102 86
0.337838 -0.036728 0.094421 73 70 63
0.341699 -0.036728 0.097253 64 59 46
0.345560 -0.036728 0.099142 150 148 143
0.349421 -0.036728 0.098197 115 106 99
0.353282 -0.036728 0.091588 87 78 65
0.357143 -0.036728 0.082146 116 109 101
0.361004 -0.036728 0.068927 89 81 73
0.364865 -0.036728 0.056652 83 76 66
0.368726 -0.036728 0.048155 51 46 42
0.372587 -0.036728 0.049099 77 61 53
0.376448 -0.036728 0.057597 45 36 31
0.380309 -0.036728 0.069871 56 51 38
0.384170 -0.036728 0.079313 78 72 50
0.388031 -0.036728 0.083090 98 90 80
0.391892 -0.036728 0.082146 130 124 103
0.395753 -0.036728 0.081202 107 97 85
0.399614 -0.036728 0.078369 101 97 94
0.403475 -0.036728 0.075536 164 157 143
0.407336 -0.036728 0.067039 64 59 44
0.411197 -0.036728 0.056652 46 40 36
0.415058 -0.036728 0.054764 68 53 45
0.418919 -0.036728 0.061373 62 47 38
0.422780 -0.036728 0.073648 28 28 19
0.426641 -0.036728 0.084034 59 53 40
0.430502 -0.036728 0.085923 83 81 59
0.434363 -0.036728 0.080258 101 102 85
0.438224 -0.036728 0.069871 104 98 87
0.442085 -0.036728 0.063262 60 51 45
0.445946 -0.036728 0.059485 40 33 31
0.449807 -0.036728 0.058541 57 51 46
0.453668 -0.036728 0.062318 97 90 73
0.457529 -0.036728 0.069871 113 99 77
0.461390 -0.036728 0.081202 86 79 70
0.465251 -0.036728 0.095365 32 28 18
0.469112 -0.036728 0.109528 65 64 49
0.472973 -0.036728 0.116137 116 108 96
0.476834 -0.036728 0.115193 97 91 78
0.480695 -0.036728 0.103863 144 148 145
0.484556 -0.036728 0.084979 141 135 133
0.488417 -0.036728 0.063262 111 99 92
0.492278 -0.036728 0.044378 65 51 43
0.496139 -0.036728 0.033991 89 75 64
0.500000 -0.036728 0.029270 69 59 50
-0.500000 -0.040594 0.047210 101 93 88
-0.496139 -0.040594 0.051931 87 79 75
-0.492278 -0.040594 0.060429 108 102 96
-0.488417 -0.040594 0.070815 103 101 97
-0.484556 -0.040594 0.081202 37 33 22
-0.480695 -0.040594 0.089700 104 95 81
-0.476834 -0.040594 0.092532 184 182 180
-0.472973 -0.040594 0.093476 153 142 137
-0.469112 -0.040594 0.095365 150 141 141
-0.465251 -0.040594 0.098197 144 135 131
-0.461390 -0.040594 0.099142 171 169 168
-0.457529 -0.040594 0.095365 61 53 49
-0.453668 -0.040594 0.086867 69 62 57
-0.449807 -0.040594 0.079313 98 87 73
-0.445946 -0.040594 0.074592 71 58 38
-0.442085 -0.040594 0.068927 76 75 59
-0.438224 -0.040594 0.063262 76 72 72
-0.434363 -0.040594 0.056652 63 55 47
-0.430502 -0.040594 0.053820 71 62 49
-0.426641 -0.040594 0.051931 99 84 70
-0.422780 -0.040594 0.053820 122 103 94
-0.418919 -0.040594 0.055708 107 97 97
-0.415058 -0.040594 0.058541 146 139 137
-0.411197 -0.040594 0.059485 136 132 133
-0.407336 -0.040594 0.058541 101 99 95
-0.403475 -0.040594 0.055708 87 83 78
-0.399614 -0.040594 0.050987 130 123 125
-0.395753 -0.040594 0.044378 79 71 72
-0.391892 -0.040594 0.037768 93 81 69
-0.388031 -0.040594 0.033047 75 60 56
-0.384170 -0.040594 0.034936 83 61 54
-0.380309 -0.040594 0.043433 70 61 56
-0.376448 -0.040594 0.050043 154 145 141
-0.372587 -0.040594 0.053820 103 91 77
-0.368726 -0.040594 0.054764 150 135 125
-0.364865 -0.040594 0.054764 109 98 88
-0.361004 -0.040594 0.058541 72 69 44
-0.357143 -0.040594 0.065150 97 91 69
-0.353282 -0.040594 0.075536 95 97 55
-0.349421 -0.040594 0.084979 142 132 111
-0.345560 -0.040594 0.091588 146 132 115
-0.341699 -0.040594 0.094421 125 107 87
-0.337838 -0.040594 0.094421 146 123 108
-0.333977 -0.040594 0.094421 108 97 85
-0.330116 -0.040594 0.091588 91 85 63
-0.326255 -0.040594 0.086867 99 94 69
-0.322394 -0.040594 0.087811 100 91 75
-0.318533 -0.040594 0.095365 102 96 86
-0.314672 -0.040594 0.105751 24 16 12
-0.310811 -0.040594 0.113305 157 154 149
-0.306950 -0.040594 0.109528 166 166 166
-0.303089 -0.040594 0.097253 43 38 38
-0.299228 -0.040594 0.083090 91 76 65
-0.295367 -0.040594 0.077425 90 82 73
-0.291506 -0.040594 0.081202 89 79 68
-0.287645 -0.040594 0.089700 166 150 132
-0.283784 -0.040594 0.094421 139 123 104
-0.279923 -0.040594 0.098197 110 96 83
-0.276062 -0.040594 0.101030 182 172 169
-0.272201 -0.040594 0.102918 164 161 160
-0.268340 -0.040594 0.102918 130 124 119
-0.264479 -0.040594 0.100086 82 76 70
-0.260618 -0.040594 0.097253 20 19 10
-0.256757 -0.040594 0.100086 47 44 30
-0.252896 -0.040594 0.112361 96 92 83
-0.249035 -0.040594 0.134077 63 61 58
-0.245174 -0.040594 0.160515 48 41 36
-0.241313 -0.040594 0.182232 138 124 102
-0.237452 -0.040594 0.188841 199 186 160
-0.233591 -0.040594 0.179399 113 98 84
-0.229730 -0.040594 0.159571 178 174 172
-0.225869 -0.040594 0.137854 166 159 154
-0.222008 -0.040594 0.121803 119 106 94
-0.218147 -0.040594 0.115193 71 65 63
-0.214286 -0.040594 0.115193 41 37 32
-0.210425 -0.040594 0.117082 86 82 77
-0.206564 -0.040594 0.113305 130 129 123
-0.202703 -0.040594 0.104807 147 144 136
-0.198842 -0.040594 0.092532 109 96 80
-0.194981 -0.040594 0.075536 93 74 56
-0.191120 -0.040594 0.062318 109 91 77
-0.187259 -0.040594 0.057597 99 78 71
-0.183398 -0.040594 0.059485 93 85 62
-0.179537 -0.040594 0.067983 92 87 64
-0.175676 -0.040594 0.080258 160 160 150
-0.171815 -0.040594 0.092532 92 91 83
-0.167954 -0.040594 0.102918 48 44 29
-0.164093 -0.040594 0.111416 48 46 27
-0.160232 -0.040594 0.117082 155 152 145
-0.156371 -0.040594 0.121803 121 120 116
-0.152510 -0.040594 0.124635 80 71 57
-0.148649 -0.040594 0.118970 169 163 158
-0.144788 -0.040594 0.104807 153 151 143
-0.140927 -0.040594 0.083090 49 47 39
-0.137066 -0.040594 0.064206 71 66 59
-0.133205 -0.040594 0.055708 111 100 88
-0.129344 -0.040594 0.063262 98 86 76
-0.125483 -0.040594 0.084979 112 105 93
-0.121622 -0.040594 0.112361 96 91 72
-0.117761 -0.040594 0.135966 147 145 133
-0.113900 -0.040594 0.145408 185 185 183
-0.110039 -0.040594 0.142575 113 106 87
-0.106178 -0.040594 0.130300 88 89 70
-0.102317 -0.040594 0.114249 131 119 110
-0.098456 -0.040594 0.094421 109 86 72
-0.094595 -0.040594 0.072704 87 74 65
-0.090734 -0.040594 0.052876 82 71 61
-0.086873 -0.040594 0.041545 100 89 82
-0.083012 -0.040594 0.039657 157 149 141
-0.079151 -0.040594 0.047210 123 107 95
-0.075290 -0.040594 0.062318 150 136 125
-0.071429 -0.040594 0.082146 124 115 112
-0.067568 -0.040594 0.103863 117 111 106
-0.063707 -0.040594 0.124635 123 120 115
-0.059846 -0.040594 0.143519 129 122 114
-0.055985 -0.040594 0.158627 118 117 102
-0.052124 -0.040594 0.166180 204 203 203
-0.048263 -0.040594 0.169957 141 131 113
-0.044402 -0.040594 0.169957 132 123 110
-0.040541 -0.040594 0.164292 208 198 184
-0.036680 -0.040594 0.152961 194 178 148
-0.032819 -0.040594 0.135966 147 135 107
-0.028958 -0.040594 0.119914 137 122 105
-0.025097 -0.040594 0.111416 125 107 90
-0.021236 -0.040594 0.113305 111 102 88
-0.017375 -0.040594 0.121803 104 95 83
-0.013514 -0.040594 0.132189 143 132 107
-0.009652 -0.040594 0.140687 64 58 48
-0.005792 -0.040594 0.146352 62 51 45
-0.001931 -0.040594 0.149185 148 143 118
0.001930 -0.040594 0.147296 154 139 119
0.005791 -0.040594 0.135021 160 149 133
0.009652 -0.040594 0.112361 117 106 84
0.013514 -0.040594 0.084979 102 89 79
0.017375 -0.040594 0.060429 107 94 86
0.021236 -0.040594 0.049099 73 65 58
0.025097 -0.040594 0.046266 101 85 75
0.028958 -0.040594 0.054764 63 55 45
0.032819 -0.040594 0.070815 56 46 40
0.036680 -0.040594 0.090644 60 46 39
0.040541 -0.040594 0.107639 29 26 18
0.044402 -0.040594 0.120858 104 98 85
0.048263 -0.040594 0.129356 99 99 62
0.052124 -0.040594 0.132189 132 129 94
0.055985 -0.040594 0.127468 172 167 157
0.059846 -0.040594 0.111416 96 88 71
0.063707 -0.040594 0.088755 106 88 74
0.067568 -0.040594 0.069871 137 118 107
0.071429 -0.040594 0.061373 90 76 66
0.075290 -0.040594 0.067983 111 105 99
0.079151 -0.040594 0.084979 143 138 132
0.083012 -0.040594 0.108584 138 132 126
0.086873 -0.040594 0.130300 164 156 148
0.090734 -0.040594 0.147296 132 126 123
0.094595 -0.040594 0.159571 84 77 73
0.098456 -0.040594 0.164292 182 178 175
0.102317 -0.040594 0.163348 145 136 128
0.106178 -0.040594 0.154850 106 94 78
0.110039 -0.040594 0.138798 106 104 93
0.113900 -0.040594 0.118970 140 137 117
0.117761 -0.040594 0.098197 112 111 81
0.121622 -0.040594 0.081202 106 91 69
0.125483 -0.040594 0.074592 91 74 66
0.129344 -0.040594 0.081202 73 65 58
0.133205 -0.040594 0.099142 61 53 46
0.137066 -0.040594 0.121803 76 71 68
0.140927 -0.040594 0.140687 204 205 204
0.144788 -0.040594 0.152017 123 122 110
0.148649 -0.040594 0.154850 97 93 76
0.152510 -0.040594 0.148240 156 151 146
0.156371 -0.040594 0.133133 162 155 152
0.160232 -0.040594 0.108584 118 109 102
0.164093 -0.040594 0.081202 114 96 82
0.167954 -0.040594 0.060429 125 102 89
