ply
format ascii 1.0
element vertex 1274
property float x
property float y
property float z
property uchar red
property uchar green
property uchar blue
end_header
0.453668 0.206835 0.116245 136 128 81
0.457529 0.206835 0.116245 135 131 84
0.461390 0.206835 0.119127 118 126 74
0.465251 0.206835 0.124891 105 112 57
0.469112 0.206835 0.132576 111 99 65
0.472973 0.206835 0.139301 57 46 33
0.476834 0.206835 0.142183 93 103 52
0.480695 0.206835 0.141223 135 130 95
0.484556 0.206835 0.135459 153 151 113
0.488417 0.206835 0.124891 125 132 71
0.492278 0.206835 0.115284 69 66 35
0.496139 0.206835 0.108559 83 76 42
0.500000 0.206835 0.108559 116 111 72
-0.500000 0.202969 0.170044 73 80 53
-0.496139 0.202969 0.165240 119 142 87
-0.492278 0.202969 0.153712 126 143 90
-0.488417 0.202969 0.137380 92 109 71
-0.484556 0.202969 0.117205 40 59 26
-0.480695 0.202969 0.094148 82 85 65
-0.476834 0.202969 0.076856 43 54 40
-0.472973 0.202969 0.067249 19 22 14
-0.469112 0.202969 0.064367 44 45 32
-0.465251 0.202969 0.063406 64 62 52
-0.461390 0.202969 0.061485 72 77 57
-0.457529 0.202969 0.058603 97 103 76
-0.453668 0.202969 0.055721 82 89 69
-0.449807 0.202969 0.052838 45 54 32
-0.445946 0.202969 0.052838 71 78 54
-0.442085 0.202969 0.056681 77 85 59
-0.438224 0.202969 0.064367 47 55 38
-0.434363 0.202969 0.073013 51 57 35
-0.430502 0.202969 0.076856 121 130 93
-0.426641 0.202969 0.074934 107 113 80
-0.422780 0.202969 0.067249 57 52 42
-0.418919 0.202969 0.058603 93 89 72
-0.415058 0.202969 0.055721 79 73 61
-0.411197 0.202969 0.060524 94 95 75
-0.407336 0.202969 0.072052 67 71 49
-0.403475 0.202969 0.086463 58 56 37
-0.399614 0.202969 0.097031 52 47 38
-0.395753 0.202969 0.100873 95 104 65
-0.391892 0.202969 0.096070 91 102 61
-0.388031 0.202969 0.086463 118 117 98
-0.384170 0.202969 0.077817 85 84 55
-0.380309 0.202969 0.072052 108 111 76
-0.376448 0.202969 0.069170 59 61 45
-0.372587 0.202969 0.068210 38 39 26
-0.368726 0.202969 0.066288 80 91 62
-0.364865 0.202969 0.062445 82 84 52
-0.361004 0.202969 0.054760 119 111 77
-0.357143 0.202969 0.046114 123 113 88
-0.353282 0.202969 0.036507 66 68 37
-0.349421 0.202969 0.026900 56 55 39
-0.345560 0.202969 0.018253 47 40 35
-0.341699 0.202969 0.014410 71 62 53
-0.337838 0.202969 0.017293 54 49 47
-0.333977 0.202969 0.025939 115 104 88
-0.330116 0.202969 0.033624 136 124 98
-0.326255 0.202969 0.039389 80 69 57
-0.322394 0.202969 0.042271 113 90 69
-0.318533 0.202969 0.043231 151 140 125
-0.314672 0.202969 0.042271 118 103 80
-0.310811 0.202969 0.037467 112 94 77
-0.306950 0.202969 0.036507 74 69 61
-0.303089 0.202969 0.040349 54 49 41
-0.299228 0.202969 0.048996 96 87 71
-0.295367 0.202969 0.055721 111 104 74
-0.291506 0.202969 0.056681 119 108 89
-0.287645 0.202969 0.052838 84 79 59
-0.283784 0.202969 0.048035 109 98 68
-0.279923 0.202969 0.044192 62 62 36
-0.276062 0.202969 0.045153 96 91 63
-0.272201 0.202969 0.052838 60 57 45
-0.268340 0.202969 0.062445 61 52 46
-0.264479 0.202969 0.072052 130 134 85
-0.260618 0.202969 0.075895 134 135 98
-0.256757 0.202969 0.073013 105 114 75
-0.252896 0.202969 0.065328 117 120 76
-0.249035 0.202969 0.055721 109 94 61
-0.245174 0.202969 0.048035 100 108 65
-0.241313 0.202969 0.040349 77 86 50
-0.237452 0.202969 0.036507 55 56 39
-0.233591 0.202969 0.041310 48 43 38
-0.229730 0.202969 0.053799 61 57 44
-0.225869 0.202969 0.070131 111 106 81
-0.222008 0.202969 0.080699 127 128 101
-0.218147 0.202969 0.086463 123 131 78
-0.214286 0.202969 0.082620 113 114 68
-0.210425 0.202969 0.072052 94 80 59
-0.206564 0.202969 0.057642 89 92 62
-0.202703 0.202969 0.051878 57 59 38
-0.198842 0.202969 0.059563 56 53 40
-0.194981 0.202969 0.079738 66 57 63
-0.191120 0.202969 0.100873 129 132 108
-0.187259 0.202969 0.115284 102 111 66
-0.183398 0.202969 0.117205 103 112 75
-0.179537 0.202969 0.111441 115 112 79
-0.175676 0.202969 0.100873 153 138 124
-0.171815 0.202969 0.085502 92 85 59
-0.167954 0.202969 0.071092 77 71 61
-0.164093 0.202969 0.061485 61 56 54
-0.160232 0.202969 0.061485 63 56 47
-0.156371 0.202969 0.070131 103 109 70
-0.152510 0.202969 0.078777 116 127 81
-0.148649 0.202969 0.083581 93 91 68
-0.144788 0.202969 0.082620 41 32 19
-0.140927 0.202969 0.074934 110 100 83
-0.137066 0.202969 0.064367 123 124 84
-0.133205 0.202969 0.051878 122 129 96
-0.129344 0.202969 0.037467 101 102 82
-0.125483 0.202969 0.026900 106 99 79
-0.121622 0.202969 0.021135 90 72 62
-0.117761 0.202969 0.024978 135 118 98
-0.113900 0.202969 0.036507 84 74 63
-0.110039 0.202969 0.050917 104 91 71
-0.106178 0.202969 0.059563 174 154 129
-0.102317 0.202969 0.059563 144 119 96
-0.098456 0.202969 0.049956 119 93 75
-0.094595 0.202969 0.033624 98 78 73
-0.090734 0.202969 0.016332 100 83 75
-0.086873 0.202969 0.002882 84 77 65
-0.083012 0.202969 0.000961 63 61 61
-0.079151 0.202969 0.015371 57 53 53
-0.075290 0.202969 0.043231 100 88 81
-0.071429 0.202969 0.073974 155 145 139
-0.067568 0.202969 0.094148 181 171 167
-0.063707 0.202969 0.094148 172 152 136
-0.059846 0.202969 0.074934 125 101 91
-0.055985 0.202969 0.048035 145 121 103
-0.052124 0.202969 0.026900 88 76 67
-0.048263 0.202969 0.026900 117 101 98
-0.044402 0.202969 0.049956 105 91 84
-0.040541 0.202969 0.088384 149 136 123
-0.036680 0.202969 0.123930 166 147 128
-0.032819 0.202969 0.143144 171 150 128
-0.028958 0.202969 0.137380 167 146 127
-0.025097 0.202969 0.111441 153 127 114
-0.021236 0.202969 0.074934 89 73 59
-0.017375 0.202969 0.037467 100 93 86
-0.013514 0.202969 0.012489 68 58 57
-0.009652 0.202969 0.000000 65 57 54
-0.005792 0.202969 0.001921 127 114 107
-0.001931 0.202969 0.014410 91 82 77
0.001930 0.202969 0.034585 125 109 100
0.005791 0.202969 0.056681 127 115 108
0.009652 0.202969 0.073974 121 98 88
0.013514 0.202969 0.079738 128 109 100
0.017375 0.202969 0.073013 108 95 87
0.021236 0.202969 0.057642 101 90 84
0.025097 0.202969 0.041310 119 115 114
0.028958 0.202969 0.032664 54 45 44
0.032819 0.202969 0.034585 85 69 63
0.036680 0.202969 0.047074 95 76 71
0.040541 0.202969 0.068210 103 101 79
0.044402 0.202969 0.094148 107 104 80
0.048263 0.202969 0.122009 99 97 72
0.052124 0.202969 0.142183 135 150 97
0.055985 0.202969 0.151790 131 147 96
0.059846 0.202969 0.147948 131 153 103
0.063707 0.202969 0.135459 85 88 61
0.067568 0.202969 0.118166 75 86 58
0.071429 0.202969 0.104716 46 57 35
0.075290 0.202969 0.097031 28 39 21
0.079151 0.202969 0.097031 50 53 40
0.083012 0.202969 0.098952 103 116 80
0.086873 0.202969 0.097031 87 95 62
0.090734 0.202969 0.090306 84 88 63
0.094595 0.202969 0.081659 80 83 62
0.098456 0.202969 0.073974 114 121 87
0.102317 0.202969 0.070131 109 99 81
0.106178 0.202969 0.069170 58 51 38
0.110039 0.202969 0.070131 82 80 58
0.113900 0.202969 0.073974 63 80 55
0.117761 0.202969 0.080699 67 86 51
0.121622 0.202969 0.092227 98 114 73
0.125483 0.202969 0.107598 66 73 49
0.129344 0.202969 0.122969 115 121 100
0.133205 0.202969 0.131616 114 122 82
0.137066 0.202969 0.133537 138 152 104
0.140927 0.202969 0.127773 129 134 102
0.144788 0.202969 0.114323 101 117 79
0.148649 0.202969 0.100873 46 48 35
0.152510 0.202969 0.093188 32 37 25
0.156371 0.202969 0.095109 89 111 67
0.160232 0.202969 0.106638 85 87 64
0.164093 0.202969 0.122009 40 37 26
0.167954 0.202969 0.131616 132 129 109
0.171815 0.202969 0.134498 147 162 105
0.175676 0.202969 0.128734 109 113 84
0.179537 0.202969 0.121048 146 143 124
0.183398 0.202969 0.113362 116 115 84
0.187259 0.202969 0.107598 106 111 76
0.191120 0.202969 0.107598 66 84 47
0.194981 0.202969 0.112402 53 61 36
0.198842 0.202969 0.122969 84 87 54
0.202703 0.202969 0.137380 93 93 68
0.206564 0.202969 0.151790 90 104 60
0.210425 0.202969 0.159476 126 139 84
0.214286 0.202969 0.159476 128 139 77
0.218147 0.202969 0.152751 75 85 50
0.222008 0.202969 0.142183 96 103 84
0.225869 0.202969 0.130655 110 111 71
0.229730 0.202969 0.121048 87 101 62
0.233591 0.202969 0.116245 79 97 53
0.237452 0.202969 0.116245 106 123 64
0.241313 0.202969 0.117205 105 115 67
0.245174 0.202969 0.115284 47 55 28
0.249035 0.202969 0.112402 52 54 34
0.252896 0.202969 0.109520 71 68 38
0.256757 0.202969 0.109520 89 93 65
0.260618 0.202969 0.110480 80 77 63
0.264479 0.202969 0.114323 55 55 36
0.268340 0.202969 0.120087 85 89 52
0.272201 0.202969 0.123930 114 123 73
0.276062 0.202969 0.126812 80 95 53
0.279923 0.202969 0.127773 59 65 39
0.283784 0.202969 0.124891 131 108 86
0.287645 0.202969 0.117205 136 119 104
0.291506 0.202969 0.110480 111 103 78
0.295367 0.202969 0.108559 117 112 79
0.299228 0.202969 0.109520 111 108 71
0.303089 0.202969 0.113362 117 125 77
0.306950 0.202969 0.122009 63 70 41
0.310811 0.202969 0.132576 80 100 50
0.314672 0.202969 0.145066 88 102 53
0.318533 0.202969 0.157555 50 52 32
0.322394 0.202969 0.167162 98 112 75
0.326255 0.202969 0.171965 142 152 94
0.330116 0.202969 0.174847 108 104 61
0.333977 0.202969 0.175808 163 168 106
0.337838 0.202969 0.173886 101 101 60
0.341699 0.202969 0.169083 86 84 53
0.345560 0.202969 0.160437 103 112 65
0.349421 0.202969 0.152751 104 124 67
0.353282 0.202969 0.147948 70 82 50
0.357143 0.202969 0.148908 78 79 48
0.361004 0.202969 0.158515 101 102 64
0.364865 0.202969 0.171004 155 167 93
0.368726 0.202969 0.181572 124 127 77
0.372587 0.202969 0.186376 118 127 63
0.376448 0.202969 0.186376 135 147 81
0.380309 0.202969 0.180611 147 161 94
0.384170 0.202969 0.171965 139 127 84
0.388031 0.202969 0.159476 154 124 99
0.391892 0.202969 0.148908 121 111 61
0.395753 0.202969 0.144105 94 79 45
0.399614 0.202969 0.147948 130 117 77
0.403475 0.202969 0.156594 143 127 106
0.407336 0.202969 0.166201 169 142 104
0.411197 0.202969 0.168122 171 147 110
0.415058 0.202969 0.165240 136 118 81
0.418919 0.202969 0.163319 88 96 43
0.422780 0.202969 0.165240 77 81 36
0.426641 0.202969 0.170044 124 115 87
0.430502 0.202969 0.169083 151 144 91
0.434363 0.202969 0.157555 129 130 78
0.438224 0.202969 0.140262 139 129 77
0.442085 0.202969 0.122969 133 118 76
0.445946 0.202969 0.111441 118 122 81
0.449807 0.202969 0.107598 138 127 93
0.453668 0.202969 0.110480 124 101 73
0.457529 0.202969 0.117205 146 127 81
0.461390 0.202969 0.124891 124 118 73
0.465251 0.202969 0.132576 93 100 53
0.469112 0.202969 0.139301 166 162 132
0.472973 0.202969 0.145066 91 88 61
0.476834 0.202969 0.147948 110 103 74
0.480695 0.202969 0.147948 87 86 45
0.484556 0.202969 0.144105 121 128 76
0.488417 0.202969 0.136419 108 115 69
0.492278 0.202969 0.129694 112 111 67
0.496139 0.202969 0.125852 70 63 37
0.500000 0.202969 0.126812 112 110 61
-0.500000 0.199103 0.161397 20 24 10
-0.496139 0.199103 0.157555 72 84 52
-0.492278 0.199103 0.147948 108 127 81
-0.488417 0.199103 0.132576 62 76 48
-0.484556 0.199103 0.112402 81 95 61
-0.480695 0.199103 0.089345 47 51 36
-0.476834 0.199103 0.072052 51 51 39
-0.472973 0.199103 0.063406 33 29 23
-0.469112 0.199103 0.061485 49 50 36
-0.465251 0.199103 0.061485 107 110 86
-0.461390 0.199103 0.059563 81 84 62
-0.457529 0.199103 0.057642 121 126 99
-0.453668 0.199103 0.053799 101 98 80
-0.449807 0.199103 0.048996 67 62 48
-0.445946 0.199103 0.048035 65 71 45
-0.442085 0.199103 0.052838 37 50 29
-0.438224 0.199103 0.060524 44 50 29
-0.434363 0.199103 0.069170 76 68 53
-0.430502 0.199103 0.073013 98 106 78
-0.426641 0.199103 0.071092 93 96 69
-0.422780 0.199103 0.063406 58 54 43
-0.418919 0.199103 0.056681 78 71 56
-0.415058 0.199103 0.055721 70 71 47
-0.411197 0.199103 0.062445 32 31 13
-0.407336 0.199103 0.075895 71 74 53
-0.403475 0.199103 0.091266 74 74 53
-0.399614 0.199103 0.101834 42 41 27
-0.395753 0.199103 0.104716 86 91 57
-0.391892 0.199103 0.097991 91 94 70
-0.388031 0.199103 0.086463 99 114 79
-0.384170 0.199103 0.076856 84 90 55
-0.380309 0.199103 0.071092 78 81 63
-0.376448 0.199103 0.067249 70 69 48
-0.372587 0.199103 0.065328 29 24 19
-0.368726 0.199103 0.064367 38 34 30
-0.364865 0.199103 0.061485 107 109 74
-0.361004 0.199103 0.055721 80 77 51
-0.357143 0.199103 0.049956 87 95 58
-0.353282 0.199103 0.044192 75 76 40
-0.349421 0.199103 0.035546 110 102 79
-0.345560 0.199103 0.026900 89 82 65
-0.341699 0.199103 0.021135 65 54 44
-0.337838 0.199103 0.020175 66 69 50
-0.333977 0.199103 0.025939 80 78 58
-0.330116 0.199103 0.032664 109 97 84
-0.326255 0.199103 0.036507 135 115 102
-0.322394 0.199103 0.039389 131 122 81
-0.318533 0.199103 0.040349 114 108 70
-0.314672 0.199103 0.038428 139 129 122
-0.310811 0.199103 0.033624 128 116 110
-0.306950 0.199103 0.030742 83 74 69
-0.303089 0.199103 0.033624 85 82 58
-0.299228 0.199103 0.040349 90 82 59
-0.295367 0.199103 0.048035 75 70 45
-0.291506 0.199103 0.050917 123 116 94
-0.287645 0.199103 0.049956 111 112 91
-0.283784 0.199103 0.046114 89 77 57
-0.279923 0.199103 0.042271 89 85 70
-0.276062 0.199103 0.040349 66 67 45
-0.272201 0.199103 0.046114 70 73 52
-0.268340 0.199103 0.055721 71 66 52
-0.264479 0.199103 0.066288 76 72 61
-0.260618 0.199103 0.072052 124 109 95
-0.256757 0.199103 0.070131 87 75 52
-0.252896 0.199103 0.064367 71 71 44
-0.249035 0.199103 0.057642 106 111 62
-0.245174 0.199103 0.049956 86 76 50
-0.241313 0.199103 0.041310 74 61 44
-0.237452 0.199103 0.038428 53 50 41
-0.233591 0.199103 0.044192 62 56 50
-0.229730 0.199103 0.058603 72 60 52
-0.225869 0.199103 0.075895 124 120 82
-0.222008 0.199103 0.086463 107 103 70
-0.218147 0.199103 0.090306 112 118 66
-0.214286 0.199103 0.083581 113 117 65
-0.210425 0.199103 0.070131 119 99 72
-0.206564 0.199103 0.054760 65 69 46
-0.202703 0.199103 0.048035 72 80 46
-0.198842 0.199103 0.053799 90 87 60
-0.194981 0.199103 0.071092 81 83 63
-0.191120 0.199103 0.091266 88 76 68
-0.187259 0.199103 0.106638 102 105 76
-0.183398 0.199103 0.111441 125 132 89
-0.179537 0.199103 0.109520 96 89 75
-0.175676 0.199103 0.100873 161 146 136
-0.171815 0.199103 0.085502 105 107 87
-0.167954 0.199103 0.069170 56 63 42
-0.164093 0.199103 0.058603 95 86 75
-0.160232 0.199103 0.056681 115 112 70
-0.156371 0.199103 0.062445 47 44 29
-0.152510 0.199103 0.070131 114 115 87
-0.148649 0.199103 0.073974 136 134 98
-0.144788 0.199103 0.074934 122 117 106
-0.140927 0.199103 0.073013 138 134 113
-0.137066 0.199103 0.065328 106 96 65
-0.133205 0.199103 0.052838 123 103 88
-0.129344 0.199103 0.037467 103 111 73
-0.125483 0.199103 0.024017 95 88 63
-0.121622 0.199103 0.017293 86 68 56
-0.117761 0.199103 0.019214 117 107 79
-0.113900 0.199103 0.029782 97 90 82
-0.110039 0.199103 0.042271 101 92 82
-0.106178 0.199103 0.050917 107 89 71
-0.102317 0.199103 0.049956 180 158 140
-0.098456 0.199103 0.039389 103 88 72
-0.094595 0.199103 0.023057 104 83 66
-0.090734 0.199103 0.007686 80 70 53
-0.086873 0.199103 0.000000 87 77 74
-0.083012 0.199103 0.000000 112 103 90
-0.079151 0.199103 0.015371 96 89 79
-0.075290 0.199103 0.041310 76 67 66
-0.071429 0.199103 0.068210 141 122 114
-0.067568 0.199103 0.084541 142 127 120
-0.063707 0.199103 0.080699 159 144 136
-0.059846 0.199103 0.062445 141 121 111
-0.055985 0.199103 0.038428 110 86 69
-0.052124 0.199103 0.021135 113 95 86
-0.048263 0.199103 0.025939 116 110 107
-0.044402 0.199103 0.052838 110 99 94
-0.040541 0.199103 0.092227 115 100 93
-0.036680 0.199103 0.126812 147 130 118
-0.032819 0.199103 0.142183 158 142 123
-0.028958 0.199103 0.133537 174 165 143
-0.025097 0.199103 0.104716 127 117 95
-0.021236 0.199103 0.067249 123 117 101
-0.017375 0.199103 0.031703 96 98 74
-0.013514 0.199103 0.008646 57 46 42
-0.009652 0.199103 0.000000 64 63 53
-0.005792 0.199103 0.001921 58 55 52
-0.001931 0.199103 0.015371 86 76 75
0.001930 0.199103 0.037467 103 89 81
0.005791 0.199103 0.062445 142 124 114
0.009652 0.199103 0.081659 160 138 123
0.013514 0.199103 0.088384 137 121 114
0.017375 0.199103 0.083581 143 132 120
0.021236 0.199103 0.068210 144 127 114
0.025097 0.199103 0.052838 116 113 100
0.028958 0.199103 0.042271 101 86 77
0.032819 0.199103 0.040349 136 125 91
0.036680 0.199103 0.047074 114 117 77
0.040541 0.199103 0.063406 108 96 82
0.044402 0.199103 0.088384 121 113 88
0.048263 0.199103 0.116245 73 72 55
0.052124 0.199103 0.138341 119 131 94
0.055985 0.199103 0.149869 137 134 91
0.059846 0.199103 0.146026 126 141 98
0.063707 0.199103 0.133537 94 97 77
0.067568 0.199103 0.116245 56 58 37
0.071429 0.199103 0.103755 57 74 41
0.075290 0.199103 0.098952 35 46 28
0.079151 0.199103 0.101834 63 73 51
0.083012 0.199103 0.106638 76 84 57
0.086873 0.199103 0.107598 121 128 85
0.090734 0.199103 0.099913 95 106 73
0.094595 0.199103 0.090306 61 67 50
0.098456 0.199103 0.078777 103 111 89
0.102317 0.199103 0.072052 105 115 90
0.106178 0.199103 0.068210 80 81 63
0.110039 0.199103 0.069170 64 66 45
0.113900 0.199103 0.075895 85 107 67
0.117761 0.199103 0.084541 100 109 72
0.121622 0.199103 0.096070 75 89 57
0.125483 0.199103 0.110480 52 55 38
0.129344 0.199103 0.122969 158 162 138
0.133205 0.199103 0.130655 103 100 73
0.137066 0.199103 0.132576 122 129 88
0.140927 0.199103 0.126812 109 115 93
0.144788 0.199103 0.115284 79 74 63
0.148649 0.199103 0.100873 10 13 8
0.152510 0.199103 0.091266 33 49 30
0.156371 0.199103 0.091266 78 101 65
0.160232 0.199103 0.102795 19 25 15
0.164093 0.199103 0.118166 48 45 32
0.167954 0.199103 0.128734 150 149 113
0.171815 0.199103 0.132576 132 139 95
0.175676 0.199103 0.128734 127 134 85
0.179537 0.199103 0.122009 88 93 61
0.183398 0.199103 0.117205 85 86 66
0.187259 0.199103 0.114323 113 122 83
0.191120 0.199103 0.115284 73 100 52
0.194981 0.199103 0.117205 38 54 27
0.198842 0.199103 0.125852 116 123 89
0.202703 0.199103 0.136419 97 102 70
0.206564 0.199103 0.148908 125 125 99
0.210425 0.199103 0.154673 137 132 111
0.214286 0.199103 0.153712 91 93 61
0.218147 0.199103 0.146026 98 89 75
0.222008 0.199103 0.136419 31 20 23
0.225869 0.199103 0.125852 137 133 101
0.229730 0.199103 0.119127 78 87 63
0.233591 0.199103 0.119127 88 118 63
0.237452 0.199103 0.122009 118 133 82
0.241313 0.199103 0.125852 84 83 58
0.245174 0.199103 0.124891 57 52 36
0.249035 0.199103 0.122009 85 86 71
0.252896 0.199103 0.119127 80 83 62
0.256757 0.199103 0.116245 44 45 30
0.260618 0.199103 0.114323 82 77 58
0.264479 0.199103 0.117205 83 90 53
0.268340 0.199103 0.122009 112 124 71
0.272201 0.199103 0.125852 106 116 65
0.276062 0.199103 0.126812 124 139 89
0.279923 0.199103 0.125852 143 145 105
0.283784 0.199103 0.121048 112 113 64
0.287645 0.199103 0.113362 143 140 111
0.291506 0.199103 0.106638 137 133 93
0.295367 0.199103 0.103755 83 75 50
0.299228 0.199103 0.105677 89 70 45
0.303089 0.199103 0.111441 138 130 81
0.306950 0.199103 0.120087 112 117 75
0.310811 0.199103 0.130655 92 103 63
0.314672 0.199103 0.140262 115 128 79
0.318533 0.199103 0.150830 112 123 75
0.322394 0.199103 0.158515 94 102 76
0.326255 0.199103 0.165240 94 96 73
0.330116 0.199103 0.170044 109 107 71
0.333977 0.199103 0.174847 113 130 72
0.337838 0.199103 0.175808 119 137 74
0.341699 0.199103 0.172926 93 103 58
0.345560 0.199103 0.165240 123 133 79
0.349421 0.199103 0.156594 64 70 40
0.353282 0.199103 0.150830 31 36 18
0.357143 0.199103 0.150830 84 92 58
0.361004 0.199103 0.158515 111 125 64
0.364865 0.199103 0.169083 145 154 88
0.368726 0.199103 0.177729 176 178 118
0.372587 0.199103 0.181572 152 159 94
0.376448 0.199103 0.180611 150 148 107
0.380309 0.199103 0.174847 130 144 76
0.384170 0.199103 0.165240 142 143 99
0.388031 0.199103 0.152751 109 95 68
0.391892 0.199103 0.141223 116 116 57
0.395753 0.199103 0.135459 138 138 66
0.399614 0.199103 0.138341 134 127 75
0.403475 0.199103 0.148908 96 75 55
0.407336 0.199103 0.160437 169 133 98
0.411197 0.199103 0.164279 183 168 117
0.415058 0.199103 0.160437 137 123 85
0.418919 0.199103 0.155633 119 109 65
0.422780 0.199103 0.153712 110 111 60
0.426641 0.199103 0.155633 82 83 46
0.430502 0.199103 0.153712 148 145 106
0.434363 0.199103 0.144105 141 141 86
0.438224 0.199103 0.128734 95 102 51
0.442085 0.199103 0.114323 93 96 54
0.445946 0.199103 0.104716 95 97 60
0.449807 0.199103 0.101834 133 125 94
0.453668 0.199103 0.107598 87 68 44
0.457529 0.199103 0.118166 134 107 85
0.461390 0.199103 0.130655 151 130 96
0.465251 0.199103 0.142183 109 118 66
0.469112 0.199103 0.149869 83 92 52
0.472973 0.199103 0.154673 75 71 43
0.476834 0.199103 0.156594 66 56 36
0.480695 0.199103 0.156594 124 126 73
0.484556 0.199103 0.151790 147 160 87
0.488417 0.199103 0.146026 99 102 61
0.492278 0.199103 0.141223 92 102 53
0.496139 0.199103 0.141223 86 95 60
0.500000 0.199103 0.143144 148 140 133
-0.500000 0.195237 0.146026 47 57 38
-0.496139 0.195237 0.143144 79 91 66
-0.492278 0.195237 0.135459 107 120 78
-0.488417 0.195237 0.123930 66 83 45
-0.484556 0.195237 0.104716 33 45 19
-0.480695 0.195237 0.083581 62 69 53
-0.476834 0.195237 0.069170 31 40 21
-0.472973 0.195237 0.062445 48 51 37
-0.469112 0.195237 0.061485 56 61 44
-0.465251 0.195237 0.062445 95 101 72
-0.461390 0.195237 0.062445 92 90 70
-0.457529 0.195237 0.058603 107 106 91
-0.453668 0.195237 0.052838 95 90 75
-0.449807 0.195237 0.047074 72 65 54
-0.445946 0.195237 0.045153 84 87 62
-0.442085 0.195237 0.048035 47 54 34
-0.438224 0.195237 0.055721 40 42 26
-0.434363 0.195237 0.063406 48 50 35
-0.430502 0.195237 0.067249 87 91 59
-0.426641 0.195237 0.065328 107 111 79
-0.422780 0.195237 0.059563 108 108 87
-0.418919 0.195237 0.055721 74 78 52
-0.415058 0.195237 0.057642 110 103 81
-0.411197 0.195237 0.065328 120 121 108
-0.407336 0.195237 0.078777 108 105 100
-0.403475 0.195237 0.094148 74 78 53
-0.399614 0.195237 0.104716 142 155 104
-0.395753 0.195237 0.105677 97 108 67
-0.391892 0.195237 0.097031 35 32 25
-0.388031 0.195237 0.084541 92 98 67
-0.384170 0.195237 0.073013 96 105 66
-0.380309 0.195237 0.067249 44 59 28
-0.376448 0.195237 0.062445 40 49 25
-0.372587 0.195237 0.060524 58 55 39
-0.368726 0.195237 0.059563 50 52 33
-0.364865 0.195237 0.057642 96 100 65
-0.361004 0.195237 0.055721 84 93 60
-0.357143 0.195237 0.054760 95 103 82
-0.353282 0.195237 0.051878 72 61 46
-0.349421 0.195237 0.046114 105 87 66
-0.345560 0.195237 0.036507 107 101 74
-0.341699 0.195237 0.028821 77 63 48
-0.337838 0.195237 0.024978 99 106 66
-0.333977 0.195237 0.025939 113 101 80
-0.330116 0.195237 0.029782 136 114 95
-0.326255 0.195237 0.032664 114 96 72
-0.322394 0.195237 0.034585 118 114 84
-0.318533 0.195237 0.035546 120 117 93
-0.314672 0.195237 0.033624 66 66 46
-0.310811 0.195237 0.029782 84 76 64
-0.306950 0.195237 0.026900 86 71 66
-0.303089 0.195237 0.027860 100 97 71
-0.299228 0.195237 0.033624 94 87 64
-0.295367 0.195237 0.041310 97 93 65
-0.291506 0.195237 0.046114 127 126 77
-0.287645 0.195237 0.046114 96 89 61
-0.283784 0.195237 0.044192 84 88 54
-0.279923 0.195237 0.041310 50 57 32
-0.276062 0.195237 0.037467 28 24 17
-0.272201 0.195237 0.041310 57 49 43
-0.268340 0.195237 0.049956 34 35 26
-0.264479 0.195237 0.060524 73 69 45
-0.260618 0.195237 0.065328 96 85 65
-0.256757 0.195237 0.065328 102 103 67
-0.252896 0.195237 0.061485 85 76 45
-0.249035 0.195237 0.056681 112 106 61
-0.245174 0.195237 0.049956 105 101 62
-0.241313 0.195237 0.043231 84 83 76
-0.237452 0.195237 0.041310 29 24 22
-0.233591 0.195237 0.048996 66 56 50
-0.229730 0.195237 0.065328 44 38 36
-0.225869 0.195237 0.082620 102 102 66
-0.222008 0.195237 0.093188 157 157 99
-0.218147 0.195237 0.095109 125 119 78
-0.214286 0.195237 0.086463 89 85 42
-0.210425 0.195237 0.072052 85 68 52
-0.206564 0.195237 0.056681 51 43 41
-0.202703 0.195237 0.048996 61 53 44
-0.198842 0.195237 0.054760 77 74 60
-0.194981 0.195237 0.069170 116 110 80
-0.191120 0.195237 0.088384 130 112 88
-0.187259 0.195237 0.103755 143 150 97
-0.183398 0.195237 0.109520 127 134 88
-0.179537 0.195237 0.108559 107 120 77
-0.175676 0.195237 0.099913 94 76 60
-0.171815 0.195237 0.083581 122 120 82
-0.167954 0.195237 0.065328 96 84 65
-0.164093 0.195237 0.052838 69 61 44
-0.160232 0.195237 0.048996 118 117 77
-0.156371 0.195237 0.052838 56 50 42
-0.152510 0.195237 0.059563 74 64 53
-0.148649 0.195237 0.067249 118 105 85
-0.144788 0.195237 0.072052 120 108 89
-0.140927 0.195237 0.074934 118 103 75
-0.137066 0.195237 0.071092 143 125 92
-0.133205 0.195237 0.058603 123 120 108
-0.129344 0.195237 0.041310 76 68 67
-0.125483 0.195237 0.023057 85 81 76
-0.121622 0.195237 0.012489 91 88 59
-0.117761 0.195237 0.012489 40 36 31
-0.113900 0.195237 0.022096 30 27 26
-0.110039 0.195237 0.035546 91 86 81
-0.106178 0.195237 0.044192 130 116 110
-0.102317 0.195237 0.043231 143 123 110
-0.098456 0.195237 0.032664 125 102 81
-0.094595 0.195237 0.017293 115 106 100
-0.090734 0.195237 0.003843 95 87 84
-0.086873 0.195237 0.000000 101 95 80
-0.083012 0.195237 0.000000 99 92 75
-0.079151 0.195237 0.014410 65 60 55
-0.075290 0.195237 0.037467 41 36 36
-0.071429 0.195237 0.060524 89 78 73
-0.067568 0.195237 0.072052 153 136 123
-0.063707 0.195237 0.065328 144 114 99
-0.059846 0.195237 0.047074 116 95 85
-0.055985 0.195237 0.026900 128 106 93
-0.052124 0.195237 0.015371 139 119 105
-0.048263 0.195237 0.026900 81 76 68
-0.044402 0.195237 0.055721 100 94 89
-0.040541 0.195237 0.094148 62 58 56
-0.036680 0.195237 0.124891 180 165 142
-0.032819 0.195237 0.136419 142 125 104
-0.028958 0.195237 0.125852 166 164 123
-0.025097 0.195237 0.097991 123 121 95
-0.021236 0.195237 0.062445 124 107 99
-0.017375 0.195237 0.029782 114 102 92
-0.013514 0.195237 0.007686 87 80 68
-0.009652 0.195237 0.000000 85 86 69
-0.005792 0.195237 0.000000 58 53 48
-0.001931 0.195237 0.013450 101 91 89
0.001930 0.195237 0.037467 142 127 116
0.005791 0.195237 0.066288 164 148 133
0.009652 0.195237 0.089345 174 153 134
0.013514 0.195237 0.098952 147 129 119
0.017375 0.195237 0.096070 171 154 142
0.021236 0.195237 0.081659 133 120 100
0.025097 0.195237 0.065328 148 135 114
0.028958 0.195237 0.051878 136 119 116
0.032819 0.195237 0.044192 120 125 93
0.036680 0.195237 0.047074 130 140 92
0.040541 0.195237 0.059563 133 120 99
0.044402 0.195237 0.083581 138 119 97
0.048263 0.195237 0.111441 124 118 81
0.052124 0.195237 0.134498 127 110 76
0.055985 0.195237 0.145066 105 87 60
0.059846 0.195237 0.141223 106 114 79
0.063707 0.195237 0.128734 111 123 92
0.067568 0.195237 0.112402 59 69 48
0.071429 0.195237 0.101834 38 55 29
0.075290 0.195237 0.099913 75 100 64
0.079151 0.195237 0.105677 50 64 41
0.083012 0.195237 0.112402 34 42 26
0.086873 0.195237 0.115284 127 140 99
0.090734 0.195237 0.110480 88 97 64
0.094595 0.195237 0.100873 29 27 20
0.098456 0.195237 0.085502 110 117 97
0.102317 0.195237 0.075895 86 87 69
0.106178 0.195237 0.070131 108 109 91
0.110039 0.195237 0.071092 56 51 41
0.113900 0.195237 0.076856 45 48 31
0.117761 0.195237 0.086463 80 89 60
0.121622 0.195237 0.097991 59 67 41
0.125483 0.195237 0.110480 37 36 27
0.129344 0.195237 0.120087 72 74 56
0.133205 0.195237 0.126812 77 71 56
0.137066 0.195237 0.128734 101 103 78
0.140927 0.195237 0.123930 47 54 39
0.144788 0.195237 0.112402 43 48 38
0.148649 0.195237 0.097031 53 63 41
0.152510 0.195237 0.086463 41 53 36
0.156371 0.195237 0.085502 52 63 45
0.160232 0.195237 0.095109 21 28 20
0.164093 0.195237 0.109520 71 71 49
0.167954 0.195237 0.120087 81 79 53
0.171815 0.195237 0.123930 66 68 54
0.175676 0.195237 0.120087 55 54 36
0.179537 0.195237 0.116245 58 52 40
0.183398 0.195237 0.115284 47 45 38
0.187259 0.195237 0.116245 113 120 75
0.191120 0.195237 0.118166 93 119 66
0.194981 0.195237 0.121048 69 84 55
0.198842 0.195237 0.127773 100 111 75
0.202703 0.195237 0.138341 112 126 78
0.206564 0.195237 0.147948 59 59 43
0.210425 0.195237 0.150830 39 36 26
0.214286 0.195237 0.146026 115 116 90
0.218147 0.195237 0.136419 139 148 99
0.222008 0.195237 0.126812 37 38 24
0.225869 0.195237 0.118166 76 76 56
0.229730 0.195237 0.115284 93 92 68
0.233591 0.195237 0.118166 48 49 37
0.237452 0.195237 0.125852 52 64 33
0.241313 0.195237 0.133537 119 125 77
0.245174 0.195237 0.136419 85 78 54
0.249035 0.195237 0.134498 103 100 75
0.252896 0.195237 0.129694 128 139 93
0.256757 0.195237 0.124891 99 112 69
0.260618 0.195237 0.121048 72 81 44
0.264479 0.195237 0.121048 89 103 53
0.268340 0.195237 0.122969 101 108 59
0.272201 0.195237 0.124891 144 147 107
0.276062 0.195237 0.124891 105 103 71
0.279923 0.195237 0.122969 102 93 66
0.283784 0.195237 0.118166 88 78 54
0.287645 0.195237 0.111441 78 66 36
0.291506 0.195237 0.104716 128 123 100
0.295367 0.195237 0.101834 115 110 81
0.299228 0.195237 0.103755 81 62 42
0.303089 0.195237 0.109520 71 72 50
0.306950 0.195237 0.120087 97 101 60
0.310811 0.195237 0.130655 60 56 37
0.314672 0.195237 0.138341 65 79 44
0.318533 0.195237 0.144105 77 94 55
0.322394 0.195237 0.147948 22 27 8
0.326255 0.195237 0.152751 49 49 33
0.330116 0.195237 0.158515 150 150 137
0.333977 0.195237 0.166201 57 54 33
0.337838 0.195237 0.171004 115 127 84
0.341699 0.195237 0.171965 140 142 91
0.345560 0.195237 0.167162 76 88 43
0.349421 0.195237 0.159476 67 77 47
0.353282 0.195237 0.152751 58 67 36
0.357143 0.195237 0.149869 70 63 45
0.361004 0.195237 0.152751 91 77 57
0.364865 0.195237 0.158515 130 132 113
0.368726 0.195237 0.162358 108 99 68
0.372587 0.195237 0.164279 123 124 80
0.376448 0.195237 0.164279 116 127 81
0.380309 0.195237 0.160437 145 152 91
0.384170 0.195237 0.152751 122 114 80
0.388031 0.195237 0.141223 53 45 34
0.391892 0.195237 0.129694 116 119 80
0.395753 0.195237 0.123930 139 135 80
0.399614 0.195237 0.125852 155 153 127
0.403475 0.195237 0.135459 139 120 92
0.407336 0.195237 0.146026 152 131 111
0.411197 0.195237 0.151790 211 201 190
0.415058 0.195237 0.148908 137 119 93
0.418919 0.195237 0.143144 136 122 86
0.422780 0.195237 0.139301 125 113 74
0.426641 0.195237 0.139301 142 140 84
0.430502 0.195237 0.136419 100 101 58
0.434363 0.195237 0.128734 79 72 42
0.438224 0.195237 0.118166 107 94 55
0.442085 0.195237 0.108559 122 111 89
0.445946 0.195237 0.100873 86 86 63
0.449807 0.195237 0.098952 102 83 60
0.453668 0.195237 0.103755 49 37 24
0.457529 0.195237 0.117205 91 79 65
0.461390 0.195237 0.133537 153 144 100
0.465251 0.195237 0.147948 127 137 72
0.469112 0.195237 0.157555 100 108 60
0.472973 0.195237 0.162358 112 115 71
0.476834 0.195237 0.163319 136 131 71
0.480695 0.195237 0.162358 141 136 89
0.484556 0.195237 0.156594 155 158 107
0.488417 0.195237 0.150830 116 111 75
0.492278 0.195237 0.147948 86 87 44
0.496139 0.195237 0.148908 133 144 100
0.500000 0.195237 0.151790 106 93 85
-0.500000 0.191371 0.127773 43 40 32
-0.496139 0.191371 0.125852 82 91 65
-0.492278 0.191371 0.121048 129 142 102
-0.488417 0.191371 0.111441 114 137 91
-0.484556 0.191371 0.097031 56 77 44
-0.480695 0.191371 0.079738 63 70 50
-0.476834 0.191371 0.068210 51 60 35
-0.472973 0.191371 0.062445 44 51 35
-0.469112 0.191371 0.063406 34 41 25
-0.465251 0.191371 0.064367 95 100 72
-0.461390 0.191371 0.063406 140 145 109
-0.457529 0.191371 0.059563 81 76 61
-0.453668 0.191371 0.054760 66 60 54
-0.449807 0.191371 0.047074 78 70 60
-0.445946 0.191371 0.044192 104 98 82
-0.442085 0.191371 0.046114 61 62 47
-0.438224 0.191371 0.051878 31 34 21
-0.434363 0.191371 0.058603 62 60 42
-0.430502 0.191371 0.062445 93 95 58
-0.426641 0.191371 0.061485 115 123 80
-0.422780 0.191371 0.057642 99 98 80
-0.418919 0.191371 0.054760 80 77 58
-0.415058 0.191371 0.057642 102 96 82
-0.411197 0.191371 0.065328 117 107 98
-0.407336 0.191371 0.076856 71 69 64
-0.403475 0.191371 0.091266 45 43 31
-0.399614 0.191371 0.099913 140 153 104
-0.395753 0.191371 0.099913 79 96 61
-0.391892 0.191371 0.090306 60 59 44
-0.388031 0.191371 0.078777 75 69 50
-0.384170 0.191371 0.068210 92 84 56
-0.380309 0.191371 0.062445 79 84 54
-0.376448 0.191371 0.057642 46 64 35
-0.372587 0.191371 0.054760 43 42 31
-0.368726 0.191371 0.054760 59 49 40
-0.364865 0.191371 0.055721 110 121 74
-0.361004 0.191371 0.055721 100 104 75
-0.357143 0.191371 0.056681 119 126 86
-0.353282 0.191371 0.057642 128 128 90
-0.349421 0.191371 0.053799 139 130 98
-0.345560 0.191371 0.044192 81 71 62
-0.341699 0.191371 0.034585 36 33 25
-0.337838 0.191371 0.026900 80 80 59
-0.333977 0.191371 0.024978 106 95 80
-0.330116 0.191371 0.026900 137 130 101
-0.326255 0.191371 0.026900 101 102 73
-0.322394 0.191371 0.028821 84 75 62
-0.318533 0.191371 0.030742 100 87 78
-0.314672 0.191371 0.029782 61 54 38
-0.310811 0.191371 0.027860 70 71 41
-0.306950 0.191371 0.024978 50 46 35
-0.303089 0.191371 0.026900 68 56 54
-0.299228 0.191371 0.031703 66 58 52
-0.295367 0.191371 0.038428 90 86 62
-0.291506 0.191371 0.042271 107 107 63
-0.287645 0.191371 0.043231 103 95 66
-0.283784 0.191371 0.041310 87 79 53
-0.279923 0.191371 0.038428 57 61 42
-0.276062 0.191371 0.035546 41 34 28
-0.272201 0.191371 0.037467 52 48 41
-0.268340 0.191371 0.046114 25 23 20
-0.264479 0.191371 0.055721 117 106 73
-0.260618 0.191371 0.059563 122 127 77
-0.256757 0.191371 0.058603 109 107 68
-0.252896 0.191371 0.055721 132 118 82
-0.249035 0.191371 0.052838 126 111 80
-0.245174 0.191371 0.048035 118 104 73
-0.241313 0.191371 0.044192 69 64 53
-0.237452 0.191371 0.045153 55 56 29
-0.233591 0.191371 0.054760 61 49 41
-0.229730 0.191371 0.070131 48 43 36
-0.225869 0.191371 0.086463 70 71 46
-0.222008 0.191371 0.097031 128 125 79
-0.218147 0.191371 0.097991 121 120 77
-0.214286 0.191371 0.089345 46 44 25
-0.210425 0.191371 0.074934 93 94 60
-0.206564 0.191371 0.061485 71 66 44
-0.202703 0.191371 0.054760 70 60 53
-0.198842 0.191371 0.062445 104 87 83
-0.194981 0.191371 0.078777 89 75 73
-0.191120 0.191371 0.097031 83 78 75
-0.187259 0.191371 0.110480 114 114 92
-0.183398 0.191371 0.113362 137 140 118
-0.179537 0.191371 0.108559 129 144 105
-0.175676 0.191371 0.097031 114 120 68
-0.171815 0.191371 0.079738 88 88 49
-0.167954 0.191371 0.060524 71 63 54
-0.164093 0.191371 0.046114 85 81 70
-0.160232 0.191371 0.040349 55 50 38
-0.156371 0.191371 0.044192 40 45 31
-0.152510 0.191371 0.053799 41 41 32
-0.148649 0.191371 0.064367 76 71 58
-0.144788 0.191371 0.073974 95 95 70
-0.140927 0.191371 0.081659 118 107 84
-0.137066 0.191371 0.079738 153 140 133
-0.133205 0.191371 0.066288 127 124 119
-0.129344 0.191371 0.043231 60 51 41
-0.125483 0.191371 0.021135 47 35 30
-0.121622 0.191371 0.007686 82 65 52
-0.117761 0.191371 0.006725 48 43 41
-0.113900 0.191371 0.017293 73 63 54
-0.110039 0.191371 0.030742 107 98 86
-0.106178 0.191371 0.041310 130 116 99
-0.102317 0.191371 0.041310 133 111 88
-0.098456 0.191371 0.032664 111 93 71
-0.094595 0.191371 0.018253 111 89 81
-0.090734 0.191371 0.003843 140 119 106
-0.086873 0.191371 0.000000 78 62 56
-0.083012 0.191371 0.000000 82 77 63
-0.079151 0.191371 0.012489 26 26 27
-0.075290 0.191371 0.032664 49 44 43
-0.071429 0.191371 0.050917 96 84 77
-0.067568 0.191371 0.060524 155 140 106
-0.063707 0.191371 0.051878 160 143 105
-0.059846 0.191371 0.033624 104 83 74
-0.055985 0.191371 0.016332 80 69 61
-0.052124 0.191371 0.011528 94 85 78
-0.048263 0.191371 0.025939 57 56 51
-0.044402 0.191371 0.055721 73 70 62
-0.040541 0.191371 0.091266 144 134 122
-0.036680 0.191371 0.118166 168 153 132
-0.032819 0.191371 0.127773 165 145 131
-0.028958 0.191371 0.118166 168 148 127
-0.025097 0.191371 0.093188 123 109 93
-0.021236 0.191371 0.061485 139 126 116
-0.017375 0.191371 0.030742 78 67 55
-0.013514 0.191371 0.008646 81 72 67
-0.009652 0.191371 0.000000 57 52 52
-0.005792 0.191371 0.000000 106 94 89
-0.001931 0.191371 0.010568 94 79 74
0.001930 0.191371 0.033624 118 101 92
0.005791 0.191371 0.064367 116 110 97
0.009652 0.191371 0.090306 179 169 163
0.013514 0.191371 0.102795 167 150 139
0.017375 0.191371 0.102795 154 145 125
0.021236 0.191371 0.092227 136 120 99
0.025097 0.191371 0.075895 143 122 110
0.028958 0.191371 0.058603 122 109 105
0.032819 0.191371 0.046114 126 109 97
0.036680 0.191371 0.044192 134 125 93
0.040541 0.191371 0.055721 104 105 76
0.044402 0.191371 0.080699 125 104 96
0.048263 0.191371 0.109520 143 122 114
0.052124 0.191371 0.132576 156 151 119
0.055985 0.191371 0.142183 139 153 105
0.059846 0.191371 0.137380 110 120 85
0.063707 0.191371 0.124891 73 78 53
0.067568 0.191371 0.109520 45 41 36
0.071429 0.191371 0.099913 73 75 57
0.075290 0.191371 0.098952 40 53 33
0.079151 0.191371 0.105677 97 114 78
0.083012 0.191371 0.113362 28 42 27
0.086873 0.191371 0.119127 77 78 55
0.090734 0.191371 0.117205 132 135 97
0.094595 0.191371 0.109520 81 81 61
0.098456 0.191371 0.095109 98 102 77
0.102317 0.191371 0.081659 90 91 67
0.106178 0.191371 0.073974 68 60 49
0.110039 0.191371 0.073974 77 80 55
0.113900 0.191371 0.080699 44 46 34
0.117761 0.191371 0.090306 25 32 22
0.121622 0.191371 0.101834 24 24 15
0.125483 0.191371 0.111441 19 17 15
0.129344 0.191371 0.120087 84 86 65
0.133205 0.191371 0.124891 44 45 35
0.137066 0.191371 0.125852 102 119 87
0.140927 0.191371 0.121048 108 134 83
0.144788 0.191371 0.109520 68 75 51
0.148649 0.191371 0.093188 57 71 48
0.152510 0.191371 0.081659 45 64 37
0.156371 0.191371 0.079738 55 70 42
0.160232 0.191371 0.087424 22 24 18
0.164093 0.191371 0.100873 84 85 59
0.167954 0.191371 0.109520 132 132 118
0.171815 0.191371 0.111441 106 115 96
0.175676 0.191371 0.108559 61 67 39
0.179537 0.191371 0.105677 115 119 86
0.183398 0.191371 0.107598 82 79 75
0.187259 0.191371 0.112402 59 69 37
0.191120 0.191371 0.118166 106 129 81
0.194981 0.191371 0.122009 71 85 55
0.198842 0.191371 0.131616 84 81 61
0.202703 0.191371 0.142183 100 96 70
0.206564 0.191371 0.148908 38 47 25
0.210425 0.191371 0.148908 43 60 31
0.214286 0.191371 0.139301 61 56 40
0.218147 0.191371 0.125852 73 69 47
0.222008 0.191371 0.115284 108 110 75
0.225869 0.191371 0.109520 81 82 54
0.229730 0.191371 0.109520 48 52 38
0.233591 0.191371 0.115284 43 53 32
0.237452 0.191371 0.125852 43 49 27
0.241313 0.191371 0.138341 65 62 44
0.245174 0.191371 0.145066 134 144 88
0.249035 0.191371 0.145066 116 123 72
0.252896 0.191371 0.140262 116 125 77
0.256757 0.191371 0.133537 74 87 47
0.260618 0.191371 0.126812 85 86 47
0.264479 0.191371 0.122969 61 68 40
0.268340 0.191371 0.122009 58 67 37
0.272201 0.191371 0.123930 93 89 61
0.276062 0.191371 0.123930 103 97 83
0.279923 0.191371 0.122969 71 67 57
0.283784 0.191371 0.120087 72 61 47
0.287645 0.191371 0.113362 74 72 45
0.291506 0.191371 0.106638 89 101 70
0.295367 0.191371 0.102795 92 94 67
0.299228 0.191371 0.105677 82 75 57
0.303089 0.191371 0.113362 81 86 60
0.306950 0.191371 0.124891 100 105 70
0.310811 0.191371 0.136419 43 64 30
0.314672 0.191371 0.141223 36 60 27
0.318533 0.191371 0.140262 36 41 24
0.322394 0.191371 0.137380 51 61 47
0.326255 0.191371 0.136419 66 70 52
0.330116 0.191371 0.141223 29 19 16
0.333977 0.191371 0.149869 63 74 40
0.337838 0.191371 0.159476 146 158 113
0.341699 0.191371 0.165240 123 119 80
0.345560 0.191371 0.165240 101 120 52
0.349421 0.191371 0.161397 121 141 80
0.353282 0.191371 0.153712 80 87 52
0.357143 0.191371 0.146987 101 93 79
0.361004 0.191371 0.143144 46 35 30
0.364865 0.191371 0.141223 101 85 76
0.368726 0.191371 0.140262 115 112 85
0.372587 0.191371 0.140262 123 123 94
0.376448 0.191371 0.142183 155 150 120
0.380309 0.191371 0.139301 134 123 88
0.384170 0.191371 0.134498 111 93 68
0.388031 0.191371 0.125852 56 47 32
0.391892 0.191371 0.117205 119 109 93
0.395753 0.191371 0.110480 131 112 92
0.399614 0.191371 0.110480 117 110 100
0.403475 0.191371 0.117205 152 131 98
0.407336 0.191371 0.125852 146 122 98
0.411197 0.191371 0.132576 148 130 118
0.415058 0.191371 0.132576 106 90 72
0.418919 0.191371 0.128734 57 55 27
0.422780 0.191371 0.125852 90 76 49
0.426641 0.191371 0.125852 141 127 82
0.430502 0.191371 0.122009 110 100 56
0.434363 0.191371 0.116245 138 129 100
0.438224 0.191371 0.111441 133 114 89
0.442085 0.191371 0.105677 126 121 84
0.445946 0.191371 0.100873 163 162 121
0.449807 0.191371 0.097991 100 83 67
0.453668 0.191371 0.101834 88 74 55
0.457529 0.191371 0.113362 85 71 43
0.461390 0.191371 0.131616 128 115 72
0.465251 0.191371 0.147948 154 144 88
0.469112 0.191371 0.158515 153 148 124
0.472973 0.191371 0.164279 150 151 106
0.476834 0.191371 0.164279 106 110 54
0.480695 0.191371 0.162358 127 132 80
0.484556 0.191371 0.156594 133 127 89
0.488417 0.191371 0.149869 120 111 74
0.492278 0.191371 0.146026 96 79 48
0.496139 0.191371 0.146026 169 168 138
0.500000 0.191371 0.146987 122 110 98
-0.500000 0.187505 0.111441 79 81 61
-0.496139 0.187505 0.108559 64 72 52
-0.492278 0.187505 0.104716 71 86 63
-0.488417 0.187505 0.097991 60 70 49
-0.484556 0.187505 0.087424 80 85 55
-0.480695 0.187505 0.075895 46 47 29
-0.476834 0.187505 0.069170 39 42 25
-0.472973 0.187505 0.065328 18 17 11
-0.469112 0.187505 0.064367 58 63 49
-0.465251 0.187505 0.064367 55 57 47
-0.461390 0.187505 0.062445 101 104 75
-0.457529 0.187505 0.058603 88 86 66
-0.453668 0.187505 0.054760 23 22 18
-0.449807 0.187505 0.048996 42 39 34
-0.445946 0.187505 0.044192 79 77 65
-0.442085 0.187505 0.046114 41 48 34
-0.438224 0.187505 0.050917 54 60 47
-0.434363 0.187505 0.055721 67 60 51
-0.430502 0.187505 0.059563 101 110 67
-0.426641 0.187505 0.058603 97 112 72
-0.422780 0.187505 0.055721 77 87 61
-0.418919 0.187505 0.053799 54 56 41
-0.415058 0.187505 0.055721 67 72 45
-0.411197 0.187505 0.062445 63 65 46
-0.407336 0.187505 0.071092 30 27 16
-0.403475 0.187505 0.081659 44 38 30
-0.399614 0.187505 0.088384 79 79 57
-0.395753 0.187505 0.088384 76 77 52
-0.391892 0.187505 0.080699 100 97 82
-0.388031 0.187505 0.072052 96 94 70
-0.384170 0.187505 0.064367 108 101 75
-0.380309 0.187505 0.058603 70 84 57
-0.376448 0.187505 0.054760 39 49 25
-0.372587 0.187505 0.051878 31 34 23
-0.368726 0.187505 0.051878 36 30 29
-0.364865 0.187505 0.052838 107 102 73
-0.361004 0.187505 0.054760 102 97 83
-0.357143 0.187505 0.057642 97 91 65
-0.353282 0.187505 0.059563 128 130 90
-0.349421 0.187505 0.057642 127 117 95
-0.345560 0.187505 0.048035 76 68 51
-0.341699 0.187505 0.036507 57 49 41
-0.337838 0.187505 0.026900 63 56 49
-0.333977 0.187505 0.023057 111 94 82
-0.330116 0.187505 0.022096 128 127 92
-0.326255 0.187505 0.022096 111 115 78
-0.322394 0.187505 0.024978 120 109 95
-0.318533 0.187505 0.026900 106 101 70
-0.314672 0.187505 0.028821 79 84 56
-0.310811 0.187505 0.028821 76 75 52
-0.306950 0.187505 0.027860 102 90 81
-0.303089 0.187505 0.029782 63 57 48
-0.299228 0.187505 0.034585 46 43 35
-0.295367 0.187505 0.039389 65 62 44
-0.291506 0.187505 0.042271 97 95 56
-0.287645 0.187505 0.042271 113 106 68
-0.283784 0.187505 0.039389 102 98 61
-0.279923 0.187505 0.035546 93 95 64
-0.276062 0.187505 0.032664 80 75 60
-0.272201 0.187505 0.034585 74 67 54
-0.268340 0.187505 0.043231 51 47 37
-0.264479 0.187505 0.052838 101 96 85
-0.260618 0.187505 0.055721 142 137 108
-0.256757 0.187505 0.054760 116 101 72
-0.252896 0.187505 0.051878 117 109 68
-0.249035 0.187505 0.048996 129 115 96
-0.245174 0.187505 0.046114 76 77 51
-0.241313 0.187505 0.043231 80 87 50
-0.237452 0.187505 0.047074 69 67 45
-0.233591 0.187505 0.058603 55 49 46
-0.229730 0.187505 0.073013 117 113 70
-0.225869 0.187505 0.088384 97 105 57
-0.222008 0.187505 0.097031 130 124 80
-0.218147 0.187505 0.097991 135 122 74
-0.214286 0.187505 0.089345 121 108 75
-0.210425 0.187505 0.075895 155 152 98
-0.206564 0.187505 0.064367 86 82 59
-0.202703 0.187505 0.063406 29 28 29
-0.198842 0.187505 0.075895 85 81 77
-0.194981 0.187505 0.096070 102 109 76
-0.191120 0.187505 0.114323 90 86 60
-0.187259 0.187505 0.122009 79 81 57
-0.183398 0.187505 0.119127 123 134 99
-0.179537 0.187505 0.109520 98 105 73
-0.175676 0.187505 0.096070 119 122 79
-0.171815 0.187505 0.077817 68 67 50
-0.167954 0.187505 0.057642 48 40 34
-0.164093 0.187505 0.041310 44 47 31
-0.160232 0.187505 0.035546 51 52 36
-0.156371 0.187505 0.041310 54 57 37
-0.152510 0.187505 0.052838 64 61 53
-0.148649 0.187505 0.066288 123 117 95
-0.144788 0.187505 0.077817 74 68 60
-0.140927 0.187505 0.085502 144 135 108
-0.137066 0.187505 0.083581 166 161 142
-0.133205 0.187505 0.069170 79 73 52
-0.129344 0.187505 0.044192 76 61 55
-0.125483 0.187505 0.019214 81 71 68
-0.121622 0.187505 0.005764 75 71 72
-0.117761 0.187505 0.005764 61 49 44
-0.113900 0.187505 0.016332 90 78 65
-0.110039 0.187505 0.031703 96 77 64
-0.106178 0.187505 0.043231 69 50 37
-0.102317 0.187505 0.045153 164 153 120
-0.098456 0.187505 0.038428 138 128 104
-0.094595 0.187505 0.024017 94 74 68
-0.090734 0.187505 0.007686 118 93 72
-0.086873 0.187505 0.000000 89 72 62
-0.083012 0.187505 0.000000 50 48 43
-0.079151 0.187505 0.009607 59 55 54
-0.075290 0.187505 0.027860 57 52 53
-0.071429 0.187505 0.044192 122 114 92
-0.067568 0.187505 0.050917 141 124 95
-0.063707 0.187505 0.043231 130 106 85
-0.059846 0.187505 0.025939 121 98 86
-0.055985 0.187505 0.009607 105 83 70
-0.052124 0.187505 0.006725 86 74 63
-0.048263 0.187505 0.022096 44 43 43
-0.044402 0.187505 0.049956 99 85 77
-0.040541 0.187505 0.081659 175 158 136
-0.036680 0.187505 0.105677 126 113 99
-0.032819 0.187505 0.114323 162 155 140
-0.028958 0.187505 0.108559 145 139 136
-0.025097 0.187505 0.089345 131 127 102
-0.021236 0.187505 0.062445 144 137 118
-0.017375 0.187505 0.034585 80 84 71
-0.013514 0.187505 0.012489 75 68 66
-0.009652 0.187505 0.000000 120 103 96
-0.005792 0.187505 0.000000 121 107 96
-0.001931 0.187505 0.005764 90 79 74
0.001930 0.187505 0.026900 93 82 77
0.005791 0.187505 0.055721 120 110 102
0.009652 0.187505 0.082620 170 154 139
0.013514 0.187505 0.097991 159 142 131
0.017375 0.187505 0.101834 166 144 129
0.021236 0.187505 0.095109 166 144 125
0.025097 0.187505 0.080699 182 172 165
0.028958 0.187505 0.062445 103 98 90
0.032819 0.187505 0.045153 112 86 77
0.036680 0.187505 0.040349 137 131 96
0.040541 0.187505 0.049956 100 105 72
0.044402 0.187505 0.074934 97 81 76
0.048263 0.187505 0.103755 146 125 112
0.052124 0.187505 0.126812 146 147 112
0.055985 0.187505 0.137380 133 139 112
0.059846 0.187505 0.134498 70 84 52
0.063707 0.187505 0.122009 65 79 60
0.067568 0.187505 0.109520 47 46 40
0.071429 0.187505 0.100873 82 85 65
0.075290 0.187505 0.099913 20 33 19
0.079151 0.187505 0.104716 79 95 64
0.083012 0.187505 0.111441 73 86 59
0.086873 0.187505 0.118166 25 24 17
0.090734 0.187505 0.120087 69 64 53
0.094595 0.187505 0.115284 130 140 105
0.098456 0.187505 0.101834 140 145 114
0.102317 0.187505 0.088384 111 113 89
0.106178 0.187505 0.080699 71 72 61
0.110039 0.187505 0.079738 45 40 37
0.113900 0.187505 0.085502 55 61 48
0.117761 0.187505 0.096070 82 99 69
0.121622 0.187505 0.107598 36 50 28
0.125483 0.187505 0.116245 71 76 53
0.129344 0.187505 0.122969 87 97 66
0.133205 0.187505 0.125852 65 72 49
0.137066 0.187505 0.124891 79 88 63
0.140927 0.187505 0.117205 138 160 106
0.144788 0.187505 0.104716 101 109 75
0.148649 0.187505 0.089345 63 75 45
0.152510 0.187505 0.077817 78 95 57
0.156371 0.187505 0.074934 37 53 31
0.160232 0.187505 0.081659 16 19 14
0.164093 0.187505 0.093188 57 53 38
0.167954 0.187505 0.100873 132 140 109
0.171815 0.187505 0.102795 99 125 71
0.175676 0.187505 0.098952 91 97 69
0.179537 0.187505 0.097031 104 112 78
0.183398 0.187505 0.099913 68 64 50
0.187259 0.187505 0.105677 33 41 20
0.191120 0.187505 0.115284 58 64 38
0.194981 0.187505 0.123930 86 103 59
0.198842 0.187505 0.136419 97 100 70
0.202703 0.187505 0.147948 129 123 87
0.206564 0.187505 0.152751 137 143 90
0.210425 0.187505 0.148908 58 76 34
0.214286 0.187505 0.134498 82 88 54
0.218147 0.187505 0.119127 69 59 47
0.222008 0.187505 0.107598 50 51 33
0.225869 0.187505 0.103755 65 64 44
0.229730 0.187505 0.105677 38 47 28
0.233591 0.187505 0.113362 55 78 36
0.237452 0.187505 0.126812 60 64 40
0.241313 0.187505 0.141223 82 88 58
0.245174 0.187505 0.150830 135 151 91
0.249035 0.187505 0.152751 109 126 76
0.252896 0.187505 0.148908 101 123 71
0.256757 0.187505 0.142183 124 125 84
0.260618 0.187505 0.133537 110 102 76
0.264479 0.187505 0.126812 71 82 47
0.268340 0.187505 0.123930 88 106 57
0.272201 0.187505 0.125852 61 67 36
0.276062 0.187505 0.129694 72 67 68
0.279923 0.187505 0.131616 109 101 86
0.283784 0.187505 0.130655 153 139 107
0.287645 0.187505 0.123930 91 92 71
0.291506 0.187505 0.116245 85 77 57
0.295367 0.187505 0.112402 71 69 56
0.299228 0.187505 0.114323 84 89 70
0.303089 0.187505 0.122969 52 56 33
0.306950 0.187505 0.135459 69 78 44
0.310811 0.187505 0.146987 100 116 64
0.314672 0.187505 0.149869 106 110 65
0.318533 0.187505 0.144105 74 80 46
0.322394 0.187505 0.132576 78 77 67
0.326255 0.187505 0.123930 106 98 84
0.330116 0.187505 0.123930 123 119 108
0.333977 0.187505 0.131616 108 94 66
0.337838 0.187505 0.143144 81 80 40
0.341699 0.187505 0.155633 95 83 52
0.345560 0.187505 0.160437 114 117 73
0.349421 0.187505 0.160437 111 117 68
